# .PCD v.7 - Point Cloud Data file format
VERSION 0.7
FIELDS x y z
SIZE 4 4 4
TYPE F F F
COUNT 1 1 1
WIDTH 1184
HEIGHT 1
VIEWPOINT 0 0 0 1 0 0 0
POINTS 1184
DATA ascii
-46.111111111111114 3.8888888888888893 5.0
-46.111111111111114 5.0 -5.0
-46.111111111111114 5.0 -3.888888888888889
-46.111111111111114 5.0 -2.7777777777777777
-46.111111111111114 5.0 -1.6666666666666665
-46.111111111111114 5.0 -0.5555555555555554
-46.111111111111114 5.0 0.5555555555555554
-46.111111111111114 5.0 1.666666666666667
-46.111111111111114 5.0 2.7777777777777786
-46.111111111111114 5.0 3.8888888888888893
-46.111111111111114 5.0 5.0
-45.91836734693878 0.0 -4.08163265306122
-45.91836734693878 0.0 4.08163265306122
-45.91836734693878 4.08163265306122 0.0
-45.91836734693877 -4.081632653061225 0.0
-45.0 -5.0 -5.0
-45.0 -5.0 -3.888888888888889
-45.0 -5.0 -2.7777777777777777
-45.0 -5.0 -1.6666666666666665
-45.0 -5.0 -0.5555555555555554
-45.0 -5.0 0.5555555555555554
-45.0 -5.0 1.666666666666667
-45.0 -5.0 2.7777777777777786
-45.0 -5.0 3.8888888888888893
-45.0 -5.0 5.0
-45.0 -3.888888888888889 -5.0
-45.0 -3.888888888888889 -3.888888888888889
-45.0 -3.888888888888889 -2.7777777777777777
-45.0 -3.888888888888889 -1.6666666666666665
-45.0 -3.888888888888889 -0.5555555555555554
-45.0 -3.888888888888889 0.5555555555555554
-45.0 -3.888888888888889 1.666666666666667
-45.0 -3.888888888888889 2.7777777777777786
-45.0 -3.888888888888889 3.8888888888888893
-45.0 -3.888888888888889 5.0
-45.0 -2.7777777777777777 -5.0
-45.0 -2.7777777777777777 -3.888888888888889
-45.0 -2.7777777777777777 -2.7777777777777777
-45.0 -2.7777777777777777 -1.6666666666666665
-45.0 -2.7777777777777777 -0.5555555555555554
-45.0 -2.7777777777777777 0.5555555555555554
-45.0 -2.7777777777777777 1.666666666666667
-45.0 -2.7777777777777777 2.7777777777777786
-45.0 -2.7777777777777777 3.8888888888888893
-45.0 -2.7777777777777777 5.0
-45.0 -1.6666666666666665 -5.0
-45.0 -1.6666666666666665 -3.888888888888889
-45.0 -1.6666666666666665 -2.7777777777777777
-45.0 -1.6666666666666665 -1.6666666666666665
-45.0 -1.6666666666666665 -0.5555555555555554
-45.0 -1.6666666666666665 0.5555555555555554
-45.0 -1.6666666666666665 1.666666666666667
-45.0 -1.6666666666666665 2.7777777777777786
-45.0 -1.6666666666666665 3.8888888888888893
-45.0 -1.6666666666666665 5.0
-45.0 -0.5555555555555554 -5.0
-45.0 -0.5555555555555554 -3.888888888888889
-45.0 -0.5555555555555554 -2.7777777777777777
-45.0 -0.5555555555555554 -1.6666666666666665
-45.0 -0.5555555555555554 -0.5555555555555554
-45.0 -0.5555555555555554 0.5555555555555554
-45.0 -0.5555555555555554 1.666666666666667
-45.0 -0.5555555555555554 2.7777777777777786
-45.0 -0.5555555555555554 3.8888888888888893
-45.0 -0.5555555555555554 5.0
-45.0 0.5555555555555554 -5.0
-45.0 0.5555555555555554 -3.888888888888889
-45.0 0.5555555555555554 -2.7777777777777777
-45.0 0.5555555555555554 -1.6666666666666665
-45.0 0.5555555555555554 -0.5555555555555554
-45.0 0.5555555555555554 0.5555555555555554
-45.0 0.5555555555555554 1.666666666666667
-45.0 0.5555555555555554 2.7777777777777786
-45.0 0.5555555555555554 3.8888888888888893
-45.0 0.5555555555555554 5.0
-45.0 1.666666666666667 -5.0
-45.0 1.666666666666667 -3.888888888888889
-45.0 1.666666666666667 -2.7777777777777777
-45.0 1.666666666666667 -1.6666666666666665
-45.0 1.666666666666667 -0.5555555555555554
-45.0 1.666666666666667 0.5555555555555554
-45.0 1.666666666666667 1.666666666666667
-45.0 1.666666666666667 2.7777777777777786
-45.0 1.666666666666667 3.8888888888888893
-45.0 1.666666666666667 5.0
-45.0 2.7777777777777786 -5.0
-45.0 2.7777777777777786 -3.888888888888889
-45.0 2.7777777777777786 -2.7777777777777777
-45.0 2.7777777777777786 -1.6666666666666665
-45.0 2.7777777777777786 -0.5555555555555554
-45.0 2.7777777777777786 0.5555555555555554
-45.0 2.7777777777777786 1.666666666666667
-45.0 2.7777777777777786 2.7777777777777786
-45.0 2.7777777777777786 3.8888888888888893
-45.0 2.7777777777777786 5.0
-45.0 3.8888888888888893 -5.0
-45.0 3.8888888888888893 -3.888888888888889
-45.0 3.8888888888888893 -2.7777777777777777
-45.0 3.8888888888888893 -1.6666666666666665
-45.0 3.8888888888888893 -0.5555555555555554
-45.0 3.8888888888888893 0.5555555555555554
-45.0 3.8888888888888893 1.666666666666667
-45.0 3.8888888888888893 2.7777777777777786
-45.0 3.8888888888888893 3.8888888888888893
-45.0 3.8888888888888893 5.0
-45.0 5.0 -5.0
-45.0 5.0 -3.888888888888889
-45.0 5.0 -2.7777777777777777
-45.0 5.0 -1.6666666666666665
-45.0 5.0 -0.5555555555555554
-45.0 5.0 0.5555555555555554
-45.0 5.0 1.666666666666667
-45.0 5.0 2.7777777777777786
-45.0 5.0 3.8888888888888893
-45.0 5.0 5.0
-44.89795918367347 -5.1020408163265305 0.0
-44.89795918367347 0.0 -5.102040816326529
-44.89795918367347 0.0 5.102040816326529
-44.89795918367347 5.102040816326529 0.0
-43.87755102040816 -6.122448979591836 0.0
-43.87755102040816 0.0 -6.122448979591837
-43.87755102040816 0.0 6.122448979591837
-43.87755102040816 6.122448979591837 0.0
-42.85714285714286 -7.142857142857142 0.0
-42.857142857142854 0.0 -7.142857142857146
-42.857142857142854 0.0 7.142857142857146
-42.857142857142854 7.142857142857146 0.0
-41.83673469387755 -8.16326530612245 0.0
-41.83673469387755 0.0 -8.163265306122447
-41.83673469387755 0.0 8.163265306122447
-41.83673469387755 8.163265306122447 0.0
-40.816326530612244 -9.183673469387756 0.0
-40.816326530612244 0.0 -9.183673469387756
-40.816326530612244 0.0 9.183673469387756
-40.816326530612244 9.183673469387756 0.0
-39.79591836734694 -10.204081632653061 0.0
-39.795918367346935 0.0 -10.204081632653065
-39.795918367346935 0.0 10.204081632653065
-39.795918367346935 10.204081632653065 0.0
-38.775510204081634 -11.224489795918368 0.0
-38.775510204081634 0.0 -11.224489795918366
-38.775510204081634 0.0 11.224489795918366
-38.775510204081634 11.224489795918366 0.0
-37.755102040816325 -12.244897959183673 0.0
-37.755102040816325 0.0 -12.244897959183675
-37.755102040816325 0.0 12.244897959183675
-37.755102040816325 12.244897959183675 0.0
-36.734693877551024 -13.26530612244898 0.0
-36.734693877551024 0.0 -13.265306122448976
-36.734693877551024 0.0 13.265306122448976
-36.734693877551024 13.265306122448976 0.0
-35.714285714285715 -14.285714285714285 0.0
-35.714285714285715 0.0 -14.285714285714285
-35.714285714285715 0.0 14.285714285714285
-35.714285714285715 14.285714285714285 0.0
-34.69387755102041 -15.306122448979592 0.0
-34.69387755102041 0.0 -15.306122448979593
-34.69387755102041 0.0 15.306122448979593
-34.69387755102041 15.306122448979593 0.0
-33.673469387755105 -16.3265306122449 0.0
-33.6734693877551 0.0 -16.326530612244902
-33.6734693877551 0.0 16.326530612244902
-33.6734693877551 16.326530612244902 0.0
-32.6530612244898 -17.346938775510203 0.0
-32.6530612244898 0.0 -17.346938775510203
-32.6530612244898 0.0 17.346938775510203
-32.6530612244898 17.346938775510203 0.0
-31.63265306122449 0.0 -18.36734693877551
-31.63265306122449 0.0 18.36734693877551
-31.63265306122449 18.36734693877551 0.0
-31.632653061224488 -18.367346938775512 0.0
-30.612244897959183 -19.387755102040817 0.0
-30.612244897959183 0.0 -19.387755102040817
-30.612244897959183 0.0 19.387755102040817
-30.612244897959183 19.387755102040817 0.0
-29.591836734693878 -20.408163265306122 0.0
-29.591836734693878 0.0 -20.408163265306122
-29.591836734693878 0.0 20.408163265306122
-29.591836734693878 20.408163265306122 0.0
-28.571428571428573 -21.428571428571427 0.0
-28.57142857142857 0.0 -21.42857142857143
-28.57142857142857 0.0 21.42857142857143
-28.57142857142857 21.42857142857143 0.0
-27.551020408163264 -22.448979591836736 0.0
-27.55102040816326 0.0 -22.44897959183674
-27.55102040816326 0.0 22.44897959183674
-27.55102040816326 22.44897959183674 0.0
-26.53061224489796 -23.46938775510204 0.0
-26.53061224489796 0.0 -23.46938775510204
-26.53061224489796 0.0 23.46938775510204
-26.53061224489796 23.46938775510204 0.0
-25.510204081632654 -24.489795918367346 0.0
-25.510204081632654 0.0 -24.489795918367346
-25.510204081632654 0.0 24.489795918367346
-25.510204081632654 24.489795918367346 0.0
-24.489795918367346 -25.510204081632654 0.0
-24.489795918367346 0.0 -25.510204081632654
-24.489795918367346 0.0 25.510204081632654
-24.489795918367346 25.510204081632654 0.0
-23.46938775510204 -26.53061224489796 0.0
-23.46938775510204 0.0 -26.53061224489796
-23.46938775510204 0.0 26.53061224489796
-23.46938775510204 26.53061224489796 0.0
-22.44897959183674 -27.55102040816326 0.0
-22.448979591836736 0.0 -27.551020408163264
-22.448979591836736 0.0 27.551020408163264
-22.448979591836736 27.551020408163264 0.0
-21.42857142857143 -28.57142857142857 0.0
-21.428571428571427 0.0 -28.571428571428573
-21.428571428571427 0.0 28.571428571428573
-21.428571428571427 28.571428571428573 0.0
-20.408163265306122 -29.591836734693878 0.0
-20.408163265306122 0.0 -29.591836734693878
-20.408163265306122 0.0 29.591836734693878
-20.408163265306122 29.591836734693878 0.0
-19.387755102040817 -30.612244897959183 0.0
-19.387755102040817 0.0 -30.612244897959183
-19.387755102040817 0.0 30.612244897959183
-19.387755102040817 30.612244897959183 0.0
-18.367346938775512 0.0 -31.632653061224488
-18.367346938775512 0.0 31.632653061224488
-18.367346938775512 31.632653061224488 0.0
-18.36734693877551 -31.63265306122449 0.0
-17.346938775510203 -32.6530612244898 0.0
-17.346938775510203 0.0 -32.6530612244898
-17.346938775510203 0.0 32.6530612244898
-17.346938775510203 32.6530612244898 0.0
-16.326530612244902 -33.6734693877551 0.0
-16.3265306122449 0.0 -33.673469387755105
-16.3265306122449 0.0 33.673469387755105
-16.3265306122449 33.673469387755105 0.0
-15.306122448979593 -34.69387755102041 0.0
-15.306122448979592 0.0 -34.69387755102041
-15.306122448979592 0.0 34.69387755102041
-15.306122448979592 34.69387755102041 0.0
-14.285714285714285 -35.714285714285715 0.0
-14.285714285714285 0.0 -35.714285714285715
-14.285714285714285 0.0 35.714285714285715
-14.285714285714285 35.714285714285715 0.0
-13.26530612244898 0.0 -36.734693877551024
-13.26530612244898 0.0 36.734693877551024
-13.26530612244898 36.734693877551024 0.0
-13.265306122448976 -36.734693877551024 0.0
-12.244897959183675 -37.755102040816325 0.0
-12.244897959183673 0.0 -37.755102040816325
-12.244897959183673 0.0 37.755102040816325
-12.244897959183673 37.755102040816325 0.0
-11.224489795918368 0.0 -38.775510204081634
-11.224489795918368 0.0 38.775510204081634
-11.224489795918368 38.775510204081634 0.0
-11.224489795918366 -38.775510204081634 0.0
-10.204081632653065 -39.795918367346935 0.0
-10.204081632653061 0.0 -39.79591836734694
-10.204081632653061 0.0 39.79591836734694
-10.204081632653061 39.79591836734694 0.0
-9.183673469387756 -40.816326530612244 0.0
-9.183673469387756 0.0 -40.816326530612244
-9.183673469387756 0.0 40.816326530612244
-9.183673469387756 40.816326530612244 0.0
-8.16326530612245 0.0 -41.83673469387755
-8.16326530612245 0.0 41.83673469387755
-8.16326530612245 41.83673469387755 0.0
-8.163265306122447 -41.83673469387755 0.0
-7.142857142857146 -42.857142857142854 0.0
-7.142857142857142 0.0 -42.85714285714286
-7.142857142857142 0.0 42.85714285714286
-7.142857142857142 42.85714285714286 0.0
-6.122448979591837 -43.87755102040816 0.0
-6.122448979591836 0.0 -43.87755102040816
-6.122448979591836 0.0 43.87755102040816
-6.122448979591836 43.87755102040816 0.0
-5.1020408163265305 0.0 -44.89795918367347
-5.1020408163265305 0.0 44.89795918367347
-5.1020408163265305 44.89795918367347 0.0
-5.102040816326529 -44.89795918367347 0.0
-5.0 -55.0 -5.0
-5.0 -55.0 -3.888888888888889
-5.0 -55.0 -2.7777777777777777
-5.0 -55.0 -1.6666666666666665
-5.0 -55.0 -0.5555555555555554
-5.0 -55.0 0.5555555555555554
-5.0 -55.0 1.666666666666667
-5.0 -55.0 2.7777777777777786
-5.0 -55.0 3.8888888888888893
-5.0 -55.0 5.0
-5.0 -53.888888888888886 -5.0
-5.0 -53.888888888888886 -3.888888888888889
-5.0 -53.888888888888886 -2.7777777777777777
-5.0 -53.888888888888886 -1.6666666666666665
-5.0 -53.888888888888886 -0.5555555555555554
-5.0 -53.888888888888886 0.5555555555555554
-5.0 -53.888888888888886 1.666666666666667
-5.0 -53.888888888888886 2.7777777777777786
-5.0 -53.888888888888886 3.8888888888888893
-5.0 -53.888888888888886 5.0
-5.0 -52.77777777777778 -5.0
-5.0 -52.77777777777778 -3.888888888888889
-5.0 -52.77777777777778 -2.7777777777777777
-5.0 -52.77777777777778 -1.6666666666666665
-5.0 -52.77777777777778 -0.5555555555555554
-5.0 -52.77777777777778 0.5555555555555554
-5.0 -52.77777777777778 1.666666666666667
-5.0 -52.77777777777778 2.7777777777777786
-5.0 -52.77777777777778 3.8888888888888893
-5.0 -52.77777777777778 5.0
-5.0 -51.666666666666664 -5.0
-5.0 -51.666666666666664 -3.888888888888889
-5.0 -51.666666666666664 -2.7777777777777777
-5.0 -51.666666666666664 -1.6666666666666665
-5.0 -51.666666666666664 -0.5555555555555554
-5.0 -51.666666666666664 0.5555555555555554
-5.0 -51.666666666666664 1.666666666666667
-5.0 -51.666666666666664 2.7777777777777786
-5.0 -51.666666666666664 3.8888888888888893
-5.0 -51.666666666666664 5.0
-5.0 -50.55555555555556 -5.0
-5.0 -50.55555555555556 -3.888888888888889
-5.0 -50.55555555555556 -2.7777777777777777
-5.0 -50.55555555555556 -1.6666666666666665
-5.0 -50.55555555555556 -0.5555555555555554
-5.0 -50.55555555555556 0.5555555555555554
-5.0 -50.55555555555556 1.666666666666667
-5.0 -50.55555555555556 2.7777777777777786
-5.0 -50.55555555555556 3.8888888888888893
-5.0 -50.55555555555556 5.0
-5.0 -49.44444444444444 -5.0
-5.0 -49.44444444444444 -3.888888888888889
-5.0 -49.44444444444444 -2.7777777777777777
-5.0 -49.44444444444444 -1.6666666666666665
-5.0 -49.44444444444444 -0.5555555555555554
-5.0 -49.44444444444444 0.5555555555555554
-5.0 -49.44444444444444 1.666666666666667
-5.0 -49.44444444444444 2.7777777777777786
-5.0 -49.44444444444444 3.8888888888888893
-5.0 -49.44444444444444 5.0
-5.0 -48.333333333333336 -5.0
-5.0 -48.333333333333336 -3.888888888888889
-5.0 -48.333333333333336 -2.7777777777777777
-5.0 -48.333333333333336 -1.6666666666666665
-5.0 -48.333333333333336 -0.5555555555555554
-5.0 -48.333333333333336 0.5555555555555554
-5.0 -48.333333333333336 1.666666666666667
-5.0 -48.333333333333336 2.7777777777777786
-5.0 -48.333333333333336 3.8888888888888893
-5.0 -48.333333333333336 5.0
-5.0 -47.22222222222222 -5.0
-5.0 -47.22222222222222 -3.888888888888889
-5.0 -47.22222222222222 -2.7777777777777777
-5.0 -47.22222222222222 -1.6666666666666665
-5.0 -47.22222222222222 -0.5555555555555554
-5.0 -47.22222222222222 0.5555555555555554
-5.0 -47.22222222222222 1.666666666666667
-5.0 -47.22222222222222 2.7777777777777786
-5.0 -47.22222222222222 3.8888888888888893
-5.0 -47.22222222222222 5.0
-5.0 -46.111111111111114 -5.0
-5.0 -46.111111111111114 -3.888888888888889
-5.0 -46.111111111111114 -2.7777777777777777
-5.0 -46.111111111111114 -1.6666666666666665
-5.0 -46.111111111111114 -0.5555555555555554
-5.0 -46.111111111111114 0.5555555555555554
-5.0 -46.111111111111114 1.666666666666667
-5.0 -46.111111111111114 2.7777777777777786
-5.0 -46.111111111111114 3.8888888888888893
-5.0 -46.111111111111114 5.0
-5.0 -45.0 -5.0
-5.0 -45.0 -3.888888888888889
-5.0 -45.0 -2.7777777777777777
-5.0 -45.0 -1.6666666666666665
-5.0 -45.0 -0.5555555555555554
-5.0 -45.0 0.5555555555555554
-5.0 -45.0 1.666666666666667
-5.0 -45.0 2.7777777777777786
-5.0 -45.0 3.8888888888888893
-5.0 -45.0 5.0
-5.0 -5.0 -55.0
-5.0 -5.0 -53.888888888888886
-5.0 -5.0 -52.77777777777778
-5.0 -5.0 -51.666666666666664
-5.0 -5.0 -50.55555555555556
-5.0 -5.0 -49.44444444444444
-5.0 -5.0 -48.333333333333336
-5.0 -5.0 -47.22222222222222
-5.0 -5.0 -46.111111111111114
-5.0 -5.0 -45.0
-5.0 -5.0 45.0
-5.0 -5.0 46.111111111111114
-5.0 -5.0 47.22222222222222
-5.0 -5.0 48.333333333333336
-5.0 -5.0 49.44444444444444
-5.0 -5.0 50.55555555555556
-5.0 -5.0 51.666666666666664
-5.0 -5.0 52.77777777777778
-5.0 -5.0 53.888888888888886
-5.0 -5.0 55.0
-5.0 -3.888888888888889 -55.0
-5.0 -3.888888888888889 -53.888888888888886
-5.0 -3.888888888888889 -52.77777777777778
-5.0 -3.888888888888889 -51.666666666666664
-5.0 -3.888888888888889 -50.55555555555556
-5.0 -3.888888888888889 -49.44444444444444
-5.0 -3.888888888888889 -48.333333333333336
-5.0 -3.888888888888889 -47.22222222222222
-5.0 -3.888888888888889 -46.111111111111114
-5.0 -3.888888888888889 -45.0
-5.0 -3.888888888888889 45.0
-5.0 -3.888888888888889 46.111111111111114
-5.0 -3.888888888888889 47.22222222222222
-5.0 -3.888888888888889 48.333333333333336
-5.0 -3.888888888888889 49.44444444444444
-5.0 -3.888888888888889 50.55555555555556
-5.0 -3.888888888888889 51.666666666666664
-5.0 -3.888888888888889 52.77777777777778
-5.0 -3.888888888888889 53.888888888888886
-5.0 -3.888888888888889 55.0
-5.0 -2.7777777777777777 -55.0
-5.0 -2.7777777777777777 -53.888888888888886
-5.0 -2.7777777777777777 -52.77777777777778
-5.0 -2.7777777777777777 -51.666666666666664
-5.0 -2.7777777777777777 -50.55555555555556
-5.0 -2.7777777777777777 -49.44444444444444
-5.0 -2.7777777777777777 -48.333333333333336
-5.0 -2.7777777777777777 -47.22222222222222
-5.0 -2.7777777777777777 -46.111111111111114
-5.0 -2.7777777777777777 -45.0
-5.0 -2.7777777777777777 45.0
-5.0 -2.7777777777777777 46.111111111111114
-5.0 -2.7777777777777777 47.22222222222222
-5.0 -2.7777777777777777 48.333333333333336
-5.0 -2.7777777777777777 49.44444444444444
-5.0 -2.7777777777777777 50.55555555555556
-5.0 -2.7777777777777777 51.666666666666664
-5.0 -2.7777777777777777 52.77777777777778
-5.0 -2.7777777777777777 53.888888888888886
-5.0 -2.7777777777777777 55.0
-5.0 -1.6666666666666665 -55.0
-5.0 -1.6666666666666665 -53.888888888888886
-5.0 -1.6666666666666665 -52.77777777777778
-5.0 -1.6666666666666665 -51.666666666666664
-5.0 -1.6666666666666665 -50.55555555555556
-5.0 -1.6666666666666665 -49.44444444444444
-5.0 -1.6666666666666665 -48.333333333333336
-5.0 -1.6666666666666665 -47.22222222222222
-5.0 -1.6666666666666665 -46.111111111111114
-5.0 -1.6666666666666665 -45.0
-5.0 -1.6666666666666665 45.0
-5.0 -1.6666666666666665 46.111111111111114
-5.0 -1.6666666666666665 47.22222222222222
-5.0 -1.6666666666666665 48.333333333333336
-5.0 -1.6666666666666665 49.44444444444444
-5.0 -1.6666666666666665 50.55555555555556
-5.0 -1.6666666666666665 51.666666666666664
-5.0 -1.6666666666666665 52.77777777777778
-5.0 -1.6666666666666665 53.888888888888886
-5.0 -1.6666666666666665 55.0
-5.0 -0.5555555555555554 -55.0
-5.0 -0.5555555555555554 -53.888888888888886
-5.0 -0.5555555555555554 -52.77777777777778
-5.0 -0.5555555555555554 -51.666666666666664
-5.0 -0.5555555555555554 -50.55555555555556
-5.0 -0.5555555555555554 -49.44444444444444
-5.0 -0.5555555555555554 -48.333333333333336
-5.0 -0.5555555555555554 -47.22222222222222
-5.0 -0.5555555555555554 -46.111111111111114
-5.0 -0.5555555555555554 -45.0
-5.0 -0.5555555555555554 45.0
-5.0 -0.5555555555555554 46.111111111111114
-5.0 -0.5555555555555554 47.22222222222222
-5.0 -0.5555555555555554 48.333333333333336
-5.0 -0.5555555555555554 49.44444444444444
-5.0 -0.5555555555555554 50.55555555555556
-5.0 -0.5555555555555554 51.666666666666664
-5.0 -0.5555555555555554 52.77777777777778
-5.0 -0.5555555555555554 53.888888888888886
-5.0 -0.5555555555555554 55.0
-5.0 0.5555555555555554 -55.0
-5.0 0.5555555555555554 -53.888888888888886
-5.0 0.5555555555555554 -52.77777777777778
-5.0 0.5555555555555554 -51.666666666666664
-5.0 0.5555555555555554 -50.55555555555556
-5.0 0.5555555555555554 -49.44444444444444
-5.0 0.5555555555555554 -48.333333333333336
-5.0 0.5555555555555554 -47.22222222222222
-5.0 0.5555555555555554 -46.111111111111114
-5.0 0.5555555555555554 -45.0
-5.0 0.5555555555555554 45.0
-5.0 0.5555555555555554 46.111111111111114
-5.0 0.5555555555555554 47.22222222222222
-5.0 0.5555555555555554 48.333333333333336
-5.0 0.5555555555555554 49.44444444444444
-5.0 0.5555555555555554 50.55555555555556
-5.0 0.5555555555555554 51.666666666666664
-5.0 0.5555555555555554 52.77777777777778
-5.0 0.5555555555555554 53.888888888888886
-5.0 0.5555555555555554 55.0
-5.0 1.666666666666667 -55.0
-5.0 1.666666666666667 -53.888888888888886
-5.0 1.666666666666667 -52.77777777777778
-5.0 1.666666666666667 -51.666666666666664
-5.0 1.666666666666667 -50.55555555555556
-5.0 1.666666666666667 -49.44444444444444
-5.0 1.666666666666667 -48.333333333333336
-5.0 1.666666666666667 -47.22222222222222
-5.0 1.666666666666667 -46.111111111111114
-5.0 1.666666666666667 -45.0
-5.0 1.666666666666667 45.0
-5.0 1.666666666666667 46.111111111111114
-5.0 1.666666666666667 47.22222222222222
-5.0 1.666666666666667 48.333333333333336
-5.0 1.666666666666667 49.44444444444444
-5.0 1.666666666666667 50.55555555555556
-5.0 1.666666666666667 51.666666666666664
-5.0 1.666666666666667 52.77777777777778
-5.0 1.666666666666667 53.888888888888886
-5.0 1.666666666666667 55.0
-5.0 2.7777777777777786 -55.0
-5.0 2.7777777777777786 -53.888888888888886
-5.0 2.7777777777777786 -52.77777777777778
-5.0 2.7777777777777786 -51.666666666666664
-5.0 2.7777777777777786 -50.55555555555556
-5.0 2.7777777777777786 -49.44444444444444
-5.0 2.7777777777777786 -48.333333333333336
-5.0 2.7777777777777786 -47.22222222222222
-5.0 2.7777777777777786 -46.111111111111114
-5.0 2.7777777777777786 -45.0
-5.0 2.7777777777777786 45.0
-5.0 2.7777777777777786 46.111111111111114
-5.0 2.7777777777777786 47.22222222222222
-5.0 2.7777777777777786 48.333333333333336
-5.0 2.7777777777777786 49.44444444444444
-5.0 2.7777777777777786 50.55555555555556
-5.0 2.7777777777777786 51.666666666666664
-5.0 2.7777777777777786 52.77777777777778
-5.0 2.7777777777777786 53.888888888888886
-5.0 2.7777777777777786 55.0
-5.0 3.8888888888888893 -55.0
-5.0 3.8888888888888893 -53.888888888888886
-5.0 3.8888888888888893 -52.77777777777778
-5.0 3.8888888888888893 -51.666666666666664
-5.0 3.8888888888888893 -50.55555555555556
-5.0 3.8888888888888893 -49.44444444444444
-5.0 3.8888888888888893 -48.333333333333336
-5.0 3.8888888888888893 -47.22222222222222
-5.0 3.8888888888888893 -46.111111111111114
-5.0 3.8888888888888893 -45.0
-5.0 3.8888888888888893 45.0
-5.0 3.8888888888888893 46.111111111111114
-5.0 3.8888888888888893 47.22222222222222
-5.0 3.8888888888888893 48.333333333333336
-5.0 3.8888888888888893 49.44444444444444
-5.0 3.8888888888888893 50.55555555555556
-5.0 3.8888888888888893 51.666666666666664
-5.0 3.8888888888888893 52.77777777777778
-5.0 3.8888888888888893 53.888888888888886
-5.0 3.8888888888888893 55.0
-5.0 5.0 -55.0
-5.0 5.0 -53.888888888888886
-5.0 5.0 -52.77777777777778
-5.0 5.0 -51.666666666666664
-5.0 5.0 -50.55555555555556
-5.0 5.0 -49.44444444444444
-5.0 5.0 -48.333333333333336
-5.0 5.0 -47.22222222222222
-5.0 5.0 -46.111111111111114
-5.0 5.0 -45.0
-5.0 5.0 45.0
-5.0 5.0 46.111111111111114
-5.0 5.0 47.22222222222222
-5.0 5.0 48.333333333333336
-5.0 5.0 49.44444444444444
-5.0 5.0 50.55555555555556
-5.0 5.0 51.666666666666664
-5.0 5.0 52.77777777777778
-5.0 5.0 53.888888888888886
-5.0 5.0 55.0
-5.0 45.0 -5.0
-5.0 45.0 -3.888888888888889
-5.0 45.0 -2.7777777777777777
-5.0 45.0 -1.6666666666666665
-5.0 45.0 -0.5555555555555554
-5.0 45.0 0.5555555555555554
-5.0 45.0 1.666666666666667
-5.0 45.0 2.7777777777777786
-5.0 45.0 3.8888888888888893
-5.0 45.0 5.0
-5.0 46.111111111111114 -5.0
-5.0 46.111111111111114 -3.888888888888889
-5.0 46.111111111111114 -2.7777777777777777
-5.0 46.111111111111114 -1.6666666666666665
-5.0 46.111111111111114 -0.5555555555555554
-5.0 46.111111111111114 0.5555555555555554
-5.0 46.111111111111114 1.666666666666667
-5.0 46.111111111111114 2.7777777777777786
-5.0 46.111111111111114 3.8888888888888893
-5.0 46.111111111111114 5.0
-5.0 47.22222222222222 -5.0
-5.0 47.22222222222222 -3.888888888888889
-5.0 47.22222222222222 -2.7777777777777777
-5.0 47.22222222222222 -1.6666666666666665
-5.0 47.22222222222222 -0.5555555555555554
-5.0 47.22222222222222 0.5555555555555554
-5.0 47.22222222222222 1.666666666666667
-5.0 47.22222222222222 2.7777777777777786
-5.0 47.22222222222222 3.8888888888888893
-5.0 47.22222222222222 5.0
-5.0 48.333333333333336 -5.0
-5.0 48.333333333333336 -3.888888888888889
-5.0 48.333333333333336 -2.7777777777777777
-5.0 48.333333333333336 -1.6666666666666665
-5.0 48.333333333333336 -0.5555555555555554
-5.0 48.333333333333336 0.5555555555555554
-5.0 48.333333333333336 1.666666666666667
-5.0 48.333333333333336 2.7777777777777786
-5.0 48.333333333333336 3.8888888888888893
-5.0 48.333333333333336 5.0
-5.0 49.44444444444444 -5.0
-5.0 49.44444444444444 -3.888888888888889
-5.0 49.44444444444444 -2.7777777777777777
-5.0 49.44444444444444 -1.6666666666666665
-5.0 49.44444444444444 -0.5555555555555554
-5.0 49.44444444444444 0.5555555555555554
-5.0 49.44444444444444 1.666666666666667
-5.0 49.44444444444444 2.7777777777777786
-5.0 49.44444444444444 3.8888888888888893
-5.0 49.44444444444444 5.0
-5.0 50.55555555555556 -5.0
-5.0 50.55555555555556 -3.888888888888889
-5.0 50.55555555555556 -2.7777777777777777
-5.0 50.55555555555556 -1.6666666666666665
-5.0 50.55555555555556 -0.5555555555555554
-5.0 50.55555555555556 0.5555555555555554
-5.0 50.55555555555556 1.666666666666667
-5.0 50.55555555555556 2.7777777777777786
-5.0 50.55555555555556 3.8888888888888893
-5.0 50.55555555555556 5.0
-5.0 51.666666666666664 -5.0
-5.0 51.666666666666664 -3.888888888888889
-5.0 51.666666666666664 -2.7777777777777777
-5.0 51.666666666666664 -1.6666666666666665
-5.0 51.666666666666664 -0.5555555555555554
-5.0 51.666666666666664 0.5555555555555554
-5.0 51.666666666666664 1.666666666666667
-5.0 51.666666666666664 2.7777777777777786
-5.0 51.666666666666664 3.8888888888888893
-5.0 51.666666666666664 5.0
-5.0 52.77777777777778 -5.0
-5.0 52.77777777777778 -3.888888888888889
-5.0 52.77777777777778 -2.7777777777777777
-5.0 52.77777777777778 -1.6666666666666665
-5.0 52.77777777777778 -0.5555555555555554
-5.0 52.77777777777778 0.5555555555555554
-5.0 52.77777777777778 1.666666666666667
-5.0 52.77777777777778 2.7777777777777786
-5.0 52.77777777777778 3.8888888888888893
-5.0 52.77777777777778 5.0
-5.0 53.888888888888886 -5.0
-5.0 53.888888888888886 -3.888888888888889
-5.0 53.888888888888886 -2.7777777777777777
-5.0 53.888888888888886 -1.6666666666666665
-5.0 53.888888888888886 -0.5555555555555554
-5.0 53.888888888888886 0.5555555555555554
-5.0 53.888888888888886 1.666666666666667
-5.0 53.888888888888886 2.7777777777777786
-5.0 53.888888888888886 3.8888888888888893
-5.0 53.888888888888886 5.0
-5.0 55.0 -5.0
-5.0 55.0 -3.888888888888889
-5.0 55.0 -2.7777777777777777
-5.0 55.0 -1.6666666666666665
-5.0 55.0 -0.5555555555555554
-5.0 55.0 0.5555555555555554
-5.0 55.0 1.666666666666667
-5.0 55.0 2.7777777777777786
-5.0 55.0 3.8888888888888893
-5.0 55.0 5.0
-4.081632653061225 0.0 -45.91836734693877
-4.081632653061225 0.0 45.91836734693877
-4.081632653061225 45.91836734693877 0.0
-4.08163265306122 -45.91836734693878 0.0
-3.888888888888889 -55.0 -5.0
-3.888888888888889 -55.0 -3.888888888888889
-3.888888888888889 -55.0 -2.7777777777777777
-3.888888888888889 -55.0 -1.6666666666666665
-3.888888888888889 -55.0 -0.5555555555555554
-3.888888888888889 -55.0 0.5555555555555554
-3.888888888888889 -55.0 1.666666666666667
-3.888888888888889 -55.0 2.7777777777777786
-3.888888888888889 -55.0 3.8888888888888893
-3.888888888888889 -55.0 5.0
-3.888888888888889 -53.888888888888886 -5.0
-3.888888888888889 -53.888888888888886 5.0
-3.888888888888889 -52.77777777777778 -5.0
-3.888888888888889 -52.77777777777778 5.0
-3.888888888888889 -51.666666666666664 -5.0
-3.888888888888889 -51.666666666666664 5.0
-3.888888888888889 -50.55555555555556 -5.0
-3.888888888888889 -50.55555555555556 5.0
-3.888888888888889 -49.44444444444444 -5.0
-3.888888888888889 -49.44444444444444 5.0
-3.888888888888889 -48.333333333333336 -5.0
-3.888888888888889 -48.333333333333336 5.0
-3.888888888888889 -47.22222222222222 -5.0
-3.888888888888889 -47.22222222222222 5.0
-3.888888888888889 -46.111111111111114 -5.0
-3.888888888888889 -46.111111111111114 5.0
-3.888888888888889 -45.0 -5.0
-3.888888888888889 -45.0 -3.888888888888889
-3.888888888888889 -45.0 -2.7777777777777777
-3.888888888888889 -45.0 -1.6666666666666665
-3.888888888888889 -45.0 -0.5555555555555554
-3.888888888888889 -45.0 0.5555555555555554
-3.888888888888889 -45.0 1.666666666666667
-3.888888888888889 -45.0 2.7777777777777786
-3.888888888888889 -45.0 3.8888888888888893
-3.888888888888889 -45.0 5.0
-3.888888888888889 -5.0 -55.0
-3.888888888888889 -5.0 -53.888888888888886
-3.888888888888889 -5.0 -52.77777777777778
-3.888888888888889 -5.0 -51.666666666666664
-3.888888888888889 -5.0 -50.55555555555556
-3.888888888888889 -5.0 -49.44444444444444
-3.888888888888889 -5.0 -48.333333333333336
-3.888888888888889 -5.0 -47.22222222222222
-3.888888888888889 -5.0 -46.111111111111114
-3.888888888888889 -5.0 -45.0
-3.888888888888889 -5.0 45.0
-3.888888888888889 -5.0 46.111111111111114
-3.888888888888889 -5.0 47.22222222222222
-3.888888888888889 -5.0 48.333333333333336
-3.888888888888889 -5.0 49.44444444444444
-3.888888888888889 -5.0 50.55555555555556
-3.888888888888889 -5.0 51.666666666666664
-3.888888888888889 -5.0 52.77777777777778
-3.888888888888889 -5.0 53.888888888888886
-3.888888888888889 -5.0 55.0
-3.888888888888889 -3.888888888888889 -55.0
-3.888888888888889 -3.888888888888889 -45.0
-3.888888888888889 -3.888888888888889 45.0
-3.888888888888889 -3.888888888888889 55.0
-3.888888888888889 -2.7777777777777777 -55.0
-3.888888888888889 -2.7777777777777777 -45.0
-3.888888888888889 -2.7777777777777777 45.0
-3.888888888888889 -2.7777777777777777 55.0
-3.888888888888889 -1.6666666666666665 -55.0
-3.888888888888889 -1.6666666666666665 -45.0
-3.888888888888889 -1.6666666666666665 45.0
-3.888888888888889 -1.6666666666666665 55.0
-3.888888888888889 -0.5555555555555554 -55.0
-3.888888888888889 -0.5555555555555554 -45.0
-3.888888888888889 -0.5555555555555554 45.0
-3.888888888888889 -0.5555555555555554 55.0
-3.888888888888889 0.5555555555555554 -55.0
-3.888888888888889 0.5555555555555554 -45.0
-3.888888888888889 0.5555555555555554 45.0
-3.888888888888889 0.5555555555555554 55.0
-3.888888888888889 1.666666666666667 -55.0
-3.888888888888889 1.666666666666667 -45.0
-3.888888888888889 1.666666666666667 45.0
-3.888888888888889 1.666666666666667 55.0
-3.888888888888889 2.7777777777777786 -55.0
-3.888888888888889 2.7777777777777786 -45.0
-3.888888888888889 2.7777777777777786 45.0
-3.888888888888889 2.7777777777777786 55.0
-3.888888888888889 3.8888888888888893 -55.0
-3.888888888888889 3.8888888888888893 -45.0
-3.888888888888889 3.8888888888888893 45.0
-3.888888888888889 3.8888888888888893 55.0
-3.888888888888889 5.0 -55.0
-3.888888888888889 5.0 -53.888888888888886
-3.888888888888889 5.0 -52.77777777777778
-3.888888888888889 5.0 -51.666666666666664
-3.888888888888889 5.0 -50.55555555555556
-3.888888888888889 5.0 -49.44444444444444
-3.888888888888889 5.0 -48.333333333333336
-3.888888888888889 5.0 -47.22222222222222
-3.888888888888889 5.0 -46.111111111111114
-3.888888888888889 5.0 -45.0
-3.888888888888889 5.0 45.0
-3.888888888888889 5.0 46.111111111111114
-3.888888888888889 5.0 47.22222222222222
-3.888888888888889 5.0 48.333333333333336
-3.888888888888889 5.0 49.44444444444444
-3.888888888888889 5.0 50.55555555555556
-3.888888888888889 5.0 51.666666666666664
-3.888888888888889 5.0 52.77777777777778
-3.888888888888889 5.0 53.888888888888886
-3.888888888888889 5.0 55.0
-3.888888888888889 45.0 -5.0
-3.888888888888889 45.0 -3.888888888888889
-3.888888888888889 45.0 -2.7777777777777777
-3.888888888888889 45.0 -1.6666666666666665
-3.888888888888889 45.0 -0.5555555555555554
-3.888888888888889 45.0 0.5555555555555554
-3.888888888888889 45.0 1.666666666666667
-3.888888888888889 45.0 2.7777777777777786
-3.888888888888889 45.0 3.8888888888888893
-3.888888888888889 45.0 5.0
-3.888888888888889 46.111111111111114 -5.0
-3.888888888888889 46.111111111111114 5.0
-3.888888888888889 47.22222222222222 -5.0
-3.888888888888889 47.22222222222222 5.0
-3.888888888888889 48.333333333333336 -5.0
-3.888888888888889 48.333333333333336 5.0
-3.888888888888889 49.44444444444444 -5.0
-3.888888888888889 49.44444444444444 5.0
-3.888888888888889 50.55555555555556 -5.0
-3.888888888888889 50.55555555555556 5.0
-3.888888888888889 51.666666666666664 -5.0
-3.888888888888889 51.666666666666664 5.0
-3.888888888888889 52.77777777777778 -5.0
-3.888888888888889 52.77777777777778 5.0
-3.888888888888889 53.888888888888886 -5.0
-3.888888888888889 53.888888888888886 5.0
-3.888888888888889 55.0 -5.0
-3.888888888888889 55.0 -3.888888888888889
-3.888888888888889 55.0 -2.7777777777777777
-3.888888888888889 55.0 -1.6666666666666665
-3.888888888888889 55.0 -0.5555555555555554
-3.888888888888889 55.0 0.5555555555555554
-3.888888888888889 55.0 1.666666666666667
-3.888888888888889 55.0 2.7777777777777786
-3.888888888888889 55.0 3.8888888888888893
-3.888888888888889 55.0 5.0
-3.0612244897959187 -46.93877551020408 0.0
-3.061224489795918 0.0 -46.93877551020408
-3.061224489795918 0.0 46.93877551020408
-3.061224489795918 46.93877551020408 0.0
-2.7777777777777777 -55.0 -5.0
-2.7777777777777777 -55.0 -3.888888888888889
-2.7777777777777777 -55.0 -2.7777777777777777
-2.7777777777777777 -55.0 -1.6666666666666665
-2.7777777777777777 -55.0 -0.5555555555555554
-2.7777777777777777 -55.0 0.5555555555555554
-2.7777777777777777 -55.0 1.666666666666667
-2.7777777777777777 -55.0 2.7777777777777786
-2.7777777777777777 -55.0 3.8888888888888893
-2.7777777777777777 -55.0 5.0
-2.7777777777777777 -53.888888888888886 -5.0
-2.7777777777777777 -53.888888888888886 5.0
-2.7777777777777777 -52.77777777777778 -5.0
-2.7777777777777777 -52.77777777777778 5.0
-2.7777777777777777 -51.666666666666664 -5.0
-2.7777777777777777 -51.666666666666664 5.0
-2.7777777777777777 -50.55555555555556 -5.0
-2.7777777777777777 -50.55555555555556 5.0
-2.7777777777777777 -49.44444444444444 -5.0
-2.7777777777777777 -49.44444444444444 5.0
-2.7777777777777777 -48.333333333333336 -5.0
-2.7777777777777777 -48.333333333333336 5.0
-2.7777777777777777 -47.22222222222222 -5.0
-2.7777777777777777 -47.22222222222222 5.0
-2.7777777777777777 -46.111111111111114 -5.0
-2.7777777777777777 -46.111111111111114 5.0
-2.7777777777777777 -45.0 -5.0
-2.7777777777777777 -45.0 -3.888888888888889
-2.7777777777777777 -45.0 -2.7777777777777777
-2.7777777777777777 -45.0 -1.6666666666666665
-2.7777777777777777 -45.0 -0.5555555555555554
-2.7777777777777777 -45.0 0.5555555555555554
-2.7777777777777777 -45.0 1.666666666666667
-2.7777777777777777 -45.0 2.7777777777777786
-2.7777777777777777 -45.0 3.8888888888888893
-2.7777777777777777 -45.0 5.0
-2.7777777777777777 -5.0 -55.0
-2.7777777777777777 -5.0 -53.888888888888886
-2.7777777777777777 -5.0 -52.77777777777778
-2.7777777777777777 -5.0 -51.666666666666664
-2.7777777777777777 -5.0 -50.55555555555556
-2.7777777777777777 -5.0 -49.44444444444444
-2.7777777777777777 -5.0 -48.333333333333336
-2.7777777777777777 -5.0 -47.22222222222222
-2.7777777777777777 -5.0 -46.111111111111114
-2.7777777777777777 -5.0 -45.0
-2.7777777777777777 -5.0 45.0
-2.7777777777777777 -5.0 46.111111111111114
-2.7777777777777777 -5.0 47.22222222222222
-2.7777777777777777 -5.0 48.333333333333336
-2.7777777777777777 -5.0 49.44444444444444
-2.7777777777777777 -5.0 50.55555555555556
-2.7777777777777777 -5.0 51.666666666666664
-2.7777777777777777 -5.0 52.77777777777778
-2.7777777777777777 -5.0 53.888888888888886
-2.7777777777777777 -5.0 55.0
-2.7777777777777777 -3.888888888888889 -55.0
-2.7777777777777777 -3.888888888888889 -45.0
-2.7777777777777777 -3.888888888888889 45.0
-2.7777777777777777 -3.888888888888889 55.0
-2.7777777777777777 -2.7777777777777777 -55.0
-2.7777777777777777 -2.7777777777777777 -45.0
-2.7777777777777777 -2.7777777777777777 45.0
-2.7777777777777777 -2.7777777777777777 55.0
-2.7777777777777777 -1.6666666666666665 -55.0
-2.7777777777777777 -1.6666666666666665 -45.0
-2.7777777777777777 -1.6666666666666665 45.0
-2.7777777777777777 -1.6666666666666665 55.0
-2.7777777777777777 -0.5555555555555554 -55.0
-2.7777777777777777 -0.5555555555555554 -45.0
-2.7777777777777777 -0.5555555555555554 45.0
-2.7777777777777777 -0.5555555555555554 55.0
-2.7777777777777777 0.5555555555555554 -55.0
-2.7777777777777777 0.5555555555555554 -45.0
-2.7777777777777777 0.5555555555555554 45.0
-2.7777777777777777 0.5555555555555554 55.0
-2.7777777777777777 1.666666666666667 -55.0
-2.7777777777777777 1.666666666666667 -45.0
-2.7777777777777777 1.666666666666667 45.0
-2.7777777777777777 1.666666666666667 55.0
-2.7777777777777777 2.7777777777777786 -55.0
-2.7777777777777777 2.7777777777777786 -45.0
-2.7777777777777777 2.7777777777777786 45.0
-2.7777777777777777 2.7777777777777786 55.0
-2.7777777777777777 3.8888888888888893 -55.0
-2.7777777777777777 3.8888888888888893 -45.0
-2.7777777777777777 3.8888888888888893 45.0
-2.7777777777777777 3.8888888888888893 55.0
-2.7777777777777777 5.0 -55.0
-2.7777777777777777 5.0 -53.888888888888886
-2.7777777777777777 5.0 -52.77777777777778
-2.7777777777777777 5.0 -51.666666666666664
-2.7777777777777777 5.0 -50.55555555555556
-2.7777777777777777 5.0 -49.44444444444444
-2.7777777777777777 5.0 -48.333333333333336
-2.7777777777777777 5.0 -47.22222222222222
-2.7777777777777777 5.0 -46.111111111111114
-2.7777777777777777 5.0 -45.0
-2.7777777777777777 5.0 45.0
-2.7777777777777777 5.0 46.111111111111114
-2.7777777777777777 5.0 47.22222222222222
-2.7777777777777777 5.0 48.333333333333336
-2.7777777777777777 5.0 49.44444444444444
-2.7777777777777777 5.0 50.55555555555556
-2.7777777777777777 5.0 51.666666666666664
-2.7777777777777777 5.0 52.77777777777778
-2.7777777777777777 5.0 53.888888888888886
-2.7777777777777777 5.0 55.0
-2.7777777777777777 45.0 -5.0
-2.7777777777777777 45.0 -3.888888888888889
-2.7777777777777777 45.0 -2.7777777777777777
-2.7777777777777777 45.0 -1.6666666666666665
-2.7777777777777777 45.0 -0.5555555555555554
-2.7777777777777777 45.0 0.5555555555555554
-2.7777777777777777 45.0 1.666666666666667
-2.7777777777777777 45.0 2.7777777777777786
-2.7777777777777777 45.0 3.8888888888888893
-2.7777777777777777 45.0 5.0
-2.7777777777777777 46.111111111111114 -5.0
-2.7777777777777777 46.111111111111114 5.0
-2.7777777777777777 47.22222222222222 -5.0
-2.7777777777777777 47.22222222222222 5.0
-2.7777777777777777 48.333333333333336 -5.0
-2.7777777777777777 48.333333333333336 5.0
-2.7777777777777777 49.44444444444444 -5.0
-2.7777777777777777 49.44444444444444 5.0
-2.7777777777777777 50.55555555555556 -5.0
-2.7777777777777777 50.55555555555556 5.0
-2.7777777777777777 51.666666666666664 -5.0
-2.7777777777777777 51.666666666666664 5.0
-2.7777777777777777 52.77777777777778 -5.0
-2.7777777777777777 52.77777777777778 5.0
-2.7777777777777777 53.888888888888886 -5.0
-2.7777777777777777 53.888888888888886 5.0
-2.7777777777777777 55.0 -5.0
-2.7777777777777777 55.0 -3.888888888888889
-2.7777777777777777 55.0 -2.7777777777777777
-2.7777777777777777 55.0 -1.6666666666666665
-2.7777777777777777 55.0 -0.5555555555555554
-2.7777777777777777 55.0 0.5555555555555554
-2.7777777777777777 55.0 1.666666666666667
-2.7777777777777777 55.0 2.7777777777777786
-2.7777777777777777 55.0 3.8888888888888893
-2.7777777777777777 55.0 5.0
-2.040816326530617 -47.95918367346938 0.0
-2.0408163265306123 0.0 -47.95918367346939
-2.0408163265306123 0.0 47.95918367346939
-2.0408163265306123 47.95918367346939 0.0
-1.6666666666666665 -55.0 -5.0
-1.6666666666666665 -55.0 -3.888888888888889
-1.6666666666666665 -55.0 -2.7777777777777777
-1.6666666666666665 -55.0 -1.6666666666666665
-1.6666666666666665 -55.0 -0.5555555555555554
-1.6666666666666665 -55.0 0.5555555555555554
-1.6666666666666665 -55.0 1.666666666666667
-1.6666666666666665 -55.0 2.7777777777777786
-1.6666666666666665 -55.0 3.8888888888888893
-1.6666666666666665 -55.0 5.0
-1.6666666666666665 -53.888888888888886 -5.0
-1.6666666666666665 -53.888888888888886 5.0
-1.6666666666666665 -52.77777777777778 -5.0
-1.6666666666666665 -52.77777777777778 5.0
-1.6666666666666665 -51.666666666666664 -5.0
-1.6666666666666665 -51.666666666666664 5.0
-1.6666666666666665 -50.55555555555556 -5.0
-1.6666666666666665 -50.55555555555556 5.0
-1.6666666666666665 -49.44444444444444 -5.0
-1.6666666666666665 -49.44444444444444 5.0
-1.6666666666666665 -48.333333333333336 -5.0
-1.6666666666666665 -48.333333333333336 5.0
-1.6666666666666665 -47.22222222222222 -5.0
-1.6666666666666665 -47.22222222222222 5.0
-1.6666666666666665 -46.111111111111114 -5.0
-1.6666666666666665 -46.111111111111114 5.0
-1.6666666666666665 -45.0 -5.0
-1.6666666666666665 -45.0 -3.888888888888889
-1.6666666666666665 -45.0 -2.7777777777777777
-1.6666666666666665 -45.0 -1.6666666666666665
-1.6666666666666665 -45.0 -0.5555555555555554
-1.6666666666666665 -45.0 0.5555555555555554
-1.6666666666666665 -45.0 1.666666666666667
-1.6666666666666665 -45.0 2.7777777777777786
-1.6666666666666665 -45.0 3.8888888888888893
-1.6666666666666665 -45.0 5.0
-1.6666666666666665 -5.0 -55.0
-1.6666666666666665 -5.0 -53.888888888888886
-1.6666666666666665 -5.0 -52.77777777777778
-1.6666666666666665 -5.0 -51.666666666666664
-1.6666666666666665 -5.0 -50.55555555555556
-1.6666666666666665 -5.0 -49.44444444444444
-1.6666666666666665 -5.0 -48.333333333333336
-1.6666666666666665 -5.0 -47.22222222222222
-1.6666666666666665 -5.0 -46.111111111111114
-1.6666666666666665 -5.0 -45.0
-1.6666666666666665 -5.0 45.0
-1.6666666666666665 -5.0 46.111111111111114
-1.6666666666666665 -5.0 47.22222222222222
-1.6666666666666665 -5.0 48.333333333333336
-1.6666666666666665 -5.0 49.44444444444444
-1.6666666666666665 -5.0 50.55555555555556
-1.6666666666666665 -5.0 51.666666666666664
-1.6666666666666665 -5.0 52.77777777777778
-1.6666666666666665 -5.0 53.888888888888886
-1.6666666666666665 -5.0 55.0
-1.6666666666666665 -3.888888888888889 -55.0
-1.6666666666666665 -3.888888888888889 -45.0
-1.6666666666666665 -3.888888888888889 45.0
-1.6666666666666665 -3.888888888888889 55.0
-1.6666666666666665 -2.7777777777777777 -55.0
-1.6666666666666665 -2.7777777777777777 -45.0
-1.6666666666666665 -2.7777777777777777 45.0
-1.6666666666666665 -2.7777777777777777 55.0
-1.6666666666666665 -1.6666666666666665 -55.0
-1.6666666666666665 -1.6666666666666665 -45.0
-1.6666666666666665 -1.6666666666666665 45.0
-1.6666666666666665 -1.6666666666666665 55.0
-1.6666666666666665 -0.5555555555555554 -55.0
-1.6666666666666665 -0.5555555555555554 -45.0
-1.6666666666666665 -0.5555555555555554 45.0
-1.6666666666666665 -0.5555555555555554 55.0
-1.6666666666666665 0.5555555555555554 -55.0
-1.6666666666666665 0.5555555555555554 -45.0
-1.6666666666666665 0.5555555555555554 45.0
-1.6666666666666665 0.5555555555555554 55.0
-1.6666666666666665 1.666666666666667 -55.0
-1.6666666666666665 1.666666666666667 -45.0
-1.6666666666666665 1.666666666666667 45.0
-1.6666666666666665 1.666666666666667 55.0
-1.6666666666666665 2.7777777777777786 -55.0
-1.6666666666666665 2.7777777777777786 -45.0
-1.6666666666666665 2.7777777777777786 45.0
-1.6666666666666665 2.7777777777777786 55.0
-1.6666666666666665 3.8888888888888893 -55.0
-1.6666666666666665 3.8888888888888893 -45.0
-1.6666666666666665 3.8888888888888893 45.0
-1.6666666666666665 3.8888888888888893 55.0
-1.6666666666666665 5.0 -55.0
-1.6666666666666665 5.0 -53.888888888888886
-1.6666666666666665 5.0 -52.77777777777778
-1.6666666666666665 5.0 -51.666666666666664
-1.6666666666666665 5.0 -50.55555555555556
-1.6666666666666665 5.0 -49.44444444444444
-1.6666666666666665 5.0 -48.333333333333336
-1.6666666666666665 5.0 -47.22222222222222
-1.6666666666666665 5.0 -46.111111111111114
-1.6666666666666665 5.0 -45.0
-1.6666666666666665 5.0 45.0
-1.6666666666666665 5.0 46.111111111111114
-1.6666666666666665 5.0 47.22222222222222
-1.6666666666666665 5.0 48.333333333333336
-1.6666666666666665 5.0 49.44444444444444
-1.6666666666666665 5.0 50.55555555555556
-1.6666666666666665 5.0 51.666666666666664
-1.6666666666666665 5.0 52.77777777777778
-1.6666666666666665 5.0 53.888888888888886
-1.6666666666666665 5.0 55.0
-1.6666666666666665 45.0 -5.0
-1.6666666666666665 45.0 -3.888888888888889
-1.6666666666666665 45.0 -2.7777777777777777
-1.6666666666666665 45.0 -1.6666666666666665
-1.6666666666666665 45.0 -0.5555555555555554
-1.6666666666666665 45.0 0.5555555555555554
-1.6666666666666665 45.0 1.666666666666667
-1.6666666666666665 45.0 2.7777777777777786
-1.6666666666666665 45.0 3.8888888888888893
-1.6666666666666665 45.0 5.0
-1.6666666666666665 46.111111111111114 -5.0
-1.6666666666666665 46.111111111111114 5.0
-1.6666666666666665 47.22222222222222 -5.0
-1.6666666666666665 47.22222222222222 5.0
-1.6666666666666665 48.333333333333336 -5.0
-1.6666666666666665 48.333333333333336 5.0
-1.6666666666666665 49.44444444444444 -5.0
-1.6666666666666665 49.44444444444444 5.0
-1.6666666666666665 50.55555555555556 -5.0
-1.6666666666666665 50.55555555555556 5.0
-1.6666666666666665 51.666666666666664 -5.0
-1.6666666666666665 51.666666666666664 5.0
-1.6666666666666665 52.77777777777778 -5.0
-1.6666666666666665 52.77777777777778 5.0
-1.6666666666666665 53.888888888888886 -5.0
-1.6666666666666665 53.888888888888886 5.0
-1.6666666666666665 55.0 -5.0
-1.6666666666666665 55.0 -3.888888888888889
-1.6666666666666665 55.0 -2.7777777777777777
-1.6666666666666665 55.0 -1.6666666666666665
-1.6666666666666665 55.0 -0.5555555555555554
-1.6666666666666665 55.0 0.5555555555555554
-1.6666666666666665 55.0 1.666666666666667
-1.6666666666666665 55.0 2.7777777777777786
-1.6666666666666665 55.0 3.8888888888888893
-1.6666666666666665 55.0 5.0
-1.0204081632653086 -48.97959183673469 0.0
-1.0204081632653061 0.0 -48.97959183673469
-1.0204081632653061 0.0 48.97959183673469
-1.0204081632653061 48.97959183673469 0.0
-0.5555555555555554 -55.0 -5.0
-0.5555555555555554 -55.0 -3.888888888888889
-0.5555555555555554 -55.0 -2.7777777777777777
-0.5555555555555554 -55.0 -1.6666666666666665
-0.5555555555555554 -55.0 -0.5555555555555554
-0.5555555555555554 -55.0 0.5555555555555554
-0.5555555555555554 -55.0 1.666666666666667
-0.5555555555555554 -55.0 2.7777777777777786
-0.5555555555555554 -55.0 3.8888888888888893
-0.5555555555555554 -55.0 5.0
-0.5555555555555554 -53.888888888888886 -5.0
-0.5555555555555554 -53.888888888888886 5.0
-0.5555555555555554 -52.77777777777778 -5.0
-0.5555555555555554 -52.77777777777778 5.0
-0.5555555555555554 -51.666666666666664 -5.0
-0.5555555555555554 -51.666666666666664 5.0
-0.5555555555555554 -50.55555555555556 -5.0
-0.5555555555555554 -50.55555555555556 5.0
-0.5555555555555554 -49.44444444444444 -5.0
-0.5555555555555554 -49.44444444444444 5.0
-0.5555555555555554 -48.333333333333336 -5.0
-0.5555555555555554 -48.333333333333336 5.0
-0.5555555555555554 -47.22222222222222 -5.0
-0.5555555555555554 -47.22222222222222 5.0
-0.5555555555555554 -46.111111111111114 -5.0
-0.5555555555555554 -46.111111111111114 5.0
-0.5555555555555554 -45.0 -5.0
-0.5555555555555554 -45.0 -3.888888888888889
-0.5555555555555554 -45.0 -2.7777777777777777
-0.5555555555555554 -45.0 -1.6666666666666665
-0.5555555555555554 -45.0 -0.5555555555555554
-0.5555555555555554 -45.0 0.5555555555555554
-0.5555555555555554 -45.0 1.666666666666667
-0.5555555555555554 -45.0 2.7777777777777786
-0.5555555555555554 -45.0 3.8888888888888893
-0.5555555555555554 -45.0 5.0
-0.5555555555555554 -5.0 -55.0
-0.5555555555555554 -5.0 -53.888888888888886
-0.5555555555555554 -5.0 -52.77777777777778
-0.5555555555555554 -5.0 -51.666666666666664
-0.5555555555555554 -5.0 -50.55555555555556
-0.5555555555555554 -5.0 -49.44444444444444
-0.5555555555555554 -5.0 -48.333333333333336
-0.5555555555555554 -5.0 -47.22222222222222
-0.5555555555555554 -5.0 -46.111111111111114
-0.5555555555555554 -5.0 -45.0
-0.5555555555555554 -5.0 45.0
-0.5555555555555554 -5.0 46.111111111111114
-0.5555555555555554 -5.0 47.22222222222222
-0.5555555555555554 -5.0 48.333333333333336
-0.5555555555555554 -5.0 49.44444444444444
-0.5555555555555554 -5.0 50.55555555555556
-0.5555555555555554 -5.0 51.666666666666664
-0.5555555555555554 -5.0 52.77777777777778
-0.5555555555555554 -5.0 53.888888888888886
-0.5555555555555554 -5.0 55.0
-0.5555555555555554 -3.888888888888889 -55.0
-0.5555555555555554 -3.888888888888889 -45.0
-0.5555555555555554 -3.888888888888889 45.0
-0.5555555555555554 -3.888888888888889 55.0
-0.5555555555555554 -2.7777777777777777 -55.0
