# .PCD v0.7 - Point Cloud Data file format
VERSION 0.7
FIELDS x y z rgb
SIZE 4 4 4 4
TYPE F F F F
COUNT 1 1 1 1
WIDTH 620
HEIGHT 1
VIEWPOINT 0 0 0 1 0 0 0
POINTS 620
DATA ascii
0.017629452 -0.02231048 -0.006082641 2.157629272e-38
0.018557977 -0.020482466 -0.0058932072 2.175925045e-38
0.0194865 -0.018654447 -0.0057037733 2.175997212e-38
0.02163947 -0.018269071 -0.0019425172 2.176069098e-38
0.022571426 -0.016434303 -0.001752384 2.176212872e-38
0.02350338 -0.014599532 -0.0015622508 2.176356645e-38
0.024435345 -0.012764743 -0.0013721157 2.185576488e-38
0.027843209 -0.0022023292 -0.0039988747 2.222382713e-38
0.028771732 -0.00037431251 -0.0038094409 2.222382854e-38
0.03095906 7.8704674e-05 -4.1175634e-05 2.222379631e-38
0.014191055 -0.022334058 -0.0078730956 2.341767457e-38
0.01602317 -0.021606378 -0.0050038528 2.341767737e-38
0.016951695 -0.01977836 -0.004814419 2.341768018e-38
0.017880218 -0.017950345 -0.0046249852 2.341768158e-38
0.020027243 -0.017562361 -0.00085973553 2.341768298e-38
0.019737262 -0.014294325 -0.0042461194 2.341768438e-38
0.020665785 -0.01246631 -0.0040566865 2.341768578e-38
0.021594306 -0.0106383 -0.0038672537 2.341768718e-38
0.022522831 -0.0088102836 -0.0036778199 2.341768718e-38
0.024687037 -0.0083884727 9.0935268e-05 2.341768718e-38
0.025618996 -0.0065536969 0.00028106943 2.341768718e-38
0.026550958 -0.0047189142 0.00047120359 2.341768858e-38
0.027482916 -0.0028841379 0.00066133775 2.341768858e-38
0.028414873 -0.0010493617 0.00085147191 2.341768999e-38
0.028093971 0.0021578004 -0.0025412198 2.341767317e-38
0.029022496 0.0039858171 -0.0023517869 2.341765776e-38
0.031210752 0.0044549736 0.0014218744 2.340972781e-38
0.03214271 0.0062897499 0.0016120085 2.000424323e-38
0.033074666 0.0081245266 0.0018021427 1.659162045e-38
0.032736592 0.011297883 -0.0015940527 1.686999679e-38
0.0077003441 -0.02743209 -0.011127241 2.323401339e-38
0.010467876 -0.02198356 -0.010562621 2.341768999e-38
0.012589226 -0.021631908 -0.0067972974 2.341768999e-38
0.013515171 -0.01980897 -0.0066083907 2.332585449e-38
0.014441121 -0.017986022 -0.0064194822 2.332585449e-38
0.016273938 -0.017246243 -0.003546196 2.332585449e-38
0.017202457 -0.015418238 -0.0033567641 2.323401899e-38
0.01813098 -0.013590222 -0.0031673303 2.323401899e-38
0.019059505 -0.011762206 -0.0029778974 2.323401899e-38
0.019988026 -0.0099341962 -0.0027884645 2.323366026e-38
0.020916551 -0.0081061795 -0.0025990307 2.323366026e-38
0.021845076 -0.0062781638 -0.0024095969 2.323366026e-38
0.024006775 -0.0058469893 0.0013638474 2.323401899e-38
0.024938736 -0.0040122066 0.0015539816 2.3050348e-38
0.025870694 -0.0021774303 0.0017441157 2.29585125e-38
0.02555917 0.0010338947 -0.0016518636 2.249933502e-38
0.026487691 0.002861904 -0.0014624307 2.213199304e-38
0.027416216 0.0046899207 -0.0012729978 2.231566403e-38
0.028344741 0.0065179374 -0.001083564 2.24074701e-38
0.029273262 0.0083459467 -0.00089413114 1.954296381e-38
0.030201791 0.010173969 -0.0007046964 1.677388033e-38
0.031130316 0.012001986 -0.00051526353 1.705294612e-38
0.0033369339 -0.03218108 -0.01062006 1.61317241e-38
0.0042594406 -0.030364912 -0.010431855 1.448195019e-38
0.0043001971 -0.027426979 -0.012926709 1.880578833e-38
0.0061044679 -0.026732547 -0.01005544 2.313929402e-38
0.0061400677 -0.023804767 -0.012551347 2.323401899e-38
0.0070600011 -0.021993665 -0.012363666 2.341768718e-38
0.0079799406 -0.020182548 -0.012175984 2.341768578e-38
0.0097945109 -0.019467842 -0.0093026143 2.341768578e-38
0.011913364 -0.019106828 -0.0055326079 2.332585169e-38
0.012839315 -0.017283879 -0.0053436994 2.332513422e-38
0.013765259 -0.015460943 -0.0051547918 2.323293999e-38
0.015596176 -0.014714135 -0.0022779759 2.31411045e-38
0.016524699 -0.012886118 -0.0020885421 2.314146463e-38
0.016543098 -0.0099921217 -0.0045880699 2.31411059e-38
0.017469045 -0.0081691779 -0.0043991613 2.31411059e-38
0.01931027 -0.0074020764 -0.0015202425 2.314146463e-38
0.020238794 -0.0055740601 -0.0013308087 2.314146463e-38
0.022394542 -0.0051402771 0.0024466328 2.314182336e-38
0.023326503 -0.0033054943 0.002636767 2.277268772e-38
0.023024363 -9.001838e-05 -0.00076250918 2.249609522e-38
0.023952888 0.0017379983 -0.00057307538 2.166849115e-38
0.024881409 0.0035660076 -0.0003836425 2.093093732e-38
0.025809934 0.0053940238 -0.00019420963 2.120393409e-38
0.026738459 0.0072220406 -4.7758222e-06 2.14743959e-38
0.02766698 0.0090500498 0.00018465705 1.917346522e-38
0.028595509 0.010878072 0.00037409132 1.696113865e-38
0.0017410503 -0.031481534 -0.0095482552 1.631574822e-38
0.002663557 -0.029665366 -0.0093600499 1.466165972e-38
0.0027087771 -0.02672939 -0.011857902 1.788489702e-38
0.0036287142 -0.024918281 -0.011670221 2.120822486e-38
0.0036661611 -0.021997485 -0.014169755 2.148591597e-38
0.0054685813 -0.021296075 -0.011294859 2.185540615e-38
0.0055008777 -0.01838542 -0.013795445 2.203799814e-38
0.0073084547 -0.017673858 -0.010919495 2.231242843e-38
0.0091211367 -0.01695212 -0.0080426019 2.277232478e-38
0.010043647 -0.015135943 -0.0078543955 2.332405522e-38
0.012163424 -0.014758789 -0.0040789903 2.332477409e-38
0.013089371 -0.012935846 -0.0038900827 2.323329732e-38
0.014015319 -0.011112903 -0.0037011751 2.323329873e-38
0.014941263 -0.0092899669 -0.0035122684 2.323329873e-38
0.015867211 -0.0074670236 -0.0033233599 2.323329873e-38
0.016793158 -0.0056440807 -0.0031344523 2.323329873e-38
0.017719105 -0.0038211381 -0.0029455447 2.323330013e-38
0.018645052 -0.001998195 -0.0027566371 2.323365886e-38
0.020489564 -0.0012139329 0.00012684148 2.30492704e-38
0.021418089 0.00061408291 0.00031627528 2.295382796e-38
0.022346614 0.0024420996 0.00050570862 2.203724845e-38
0.023275135 0.0042701089 0.0006951415 2.119422869e-38
0.023274783 0.0071165059 -0.0018120995 2.120284107e-38
0.025132185 0.0079261428 0.0010740086 2.110776157e-38
0.026060706 0.009754152 0.0012634415 1.917310229e-38
0.026989233 0.011582174 0.0014528758 1.724059119e-38
0.026978571 0.014408271 -0.001056469 1.723985411e-38
0.027904518 0.016231213 -0.00086756097 1.733133368e-38
0.0010676854 -0.028965825 -0.0082882522 1.484354265e-38
0.0011173582 -0.026031801 -0.010789094 1.705622656e-38
0.0020372954 -0.024220692 -0.010601413 1.927500751e-38
0.0020791995 -0.021301851 -0.013103942 1.972918376e-38
0.0029965597 -0.019495815 -0.012916787 2.02819932e-38
0.0039139162 -0.017689785 -0.012729632 2.074332588e-38
0.0048312726 -0.015883757 -0.012542477 2.120896475e-38
0.0066369628 -0.015165179 -0.0096630091 2.23131473e-38
0.007556899 -0.01335407 -0.009475328 2.341660958e-38
0.008476832 -0.011542968 -0.009287647 2.341768718e-38
0.0102928 -0.010804043 -0.0064061843 2.341768718e-38
0.011215307 -0.0089878738 -0.006217978 2.341768858e-38
0.012137817 -0.0071716979 -0.0060297716 2.341768858e-38
0.013060331 -0.0053555155 -0.0058415644 2.341768858e-38
0.013982838 -0.0035393459 -0.0056533585 2.341768858e-38
0.014905352 -0.0017231631 -0.0054651513 2.341768858e-38
0.015827859 9.3006296e-05 -0.0052769454 2.341768858e-38
0.017969185 0.0005268855 -0.0014919429 2.341768858e-38
0.018895134 0.0023498284 -0.0013030353 2.341696131e-38
0.019821081 0.0041727712 -0.0011141272 2.249788048e-38
0.020747028 0.0059957141 -0.00092521962 2.157449766e-38
0.021672972 0.0078186505 -0.00073631248 2.120212781e-38
0.022598922 0.0096415924 -0.00054740487 2.083584521e-38
0.023524869 0.011464535 -0.00035849679 1.917274496e-38
0.024450816 0.013287478 -0.00016958872 1.760865344e-38
0.025376759 0.015110415 1.9317959e-05 1.742101818e-38
0.026302706 0.016933359 0.00020822557 1.723950098e-38
-0.0005281982 -0.028266279 -0.007216447 1.46580836e-38
-0.0013424832 -0.024218278 -0.012412436 1.705658669e-38
-0.00042512396 -0.022412242 -0.012225281 1.936216968e-38
0.0004922325 -0.020606212 -0.012038126 2.018941782e-38
0.0014095927 -0.018800177 -0.01185097 2.102025188e-38
0.0011553101 -0.015533284 -0.015256193 2.148123283e-38
0.0032443055 -0.015188119 -0.011476659 2.203404648e-38
0.0041616652 -0.013382084 -0.011289504 2.249538476e-38
0.0050790184 -0.011576061 -0.011102349 2.30503452e-38
0.0059963749 -0.0097700311 -0.010915195 2.3050348e-38
0.0078053405 -0.0090342723 -0.0080311559 2.31421835e-38
0.0087252734 -0.0072231693 -0.0078434749 2.3050348e-38
0.0096452069 -0.0054120668 -0.0076557947 2.29585125e-38
0.009665804 -0.0025459074 -0.010166573 2.286667701e-38
0.010583164 -0.00073987152 -0.0099794175 2.286667701e-38
0.011500521 0.0010661578 -0.0097922627 2.268300602e-38
0.012417877 0.0028721869 -0.0096051078 2.249933502e-38
0.014244881 0.0036434603 -0.006717389 2.249933502e-38
0.016077001 0.004424911 -0.0038287272 2.249933502e-38
0.016999511 0.0062410869 -0.0036405204 2.203836388e-38
0.017922021 0.0080572637 -0.0034523141 2.166921562e-38
0.020071145 0.0085208025 0.0003394857 2.129504511e-38
0.020997092 0.010343744 0.00052839378 2.102310633e-38
0.021923039 0.012166687 0.00071730139 1.935785228e-38
0.021612067 0.015321975 -0.0026994869 1.770120921e-38
0.021604352 0.018132288 -0.0052159419 1.751357534e-38
0.022524286 0.019943392 -0.0050282613 1.733134068e-38
-0.0029854204 -0.026447725 -0.0088391574 1.456589077e-38
-0.0029294505 -0.023522642 -0.01134662 1.705730275e-38
-0.0020120912 -0.021716606 -0.011159464 1.954692107e-38
-0.0010947346 -0.019910576 -0.010972309 2.064967991e-38
-0.00017737446 -0.01810454 -0.010785153 2.175817145e-38
-0.00042570499 -0.014840255 -0.014194373 2.231349762e-38
0.00048821443 -0.013040992 -0.014007919 2.286164214e-38
0.0025746981 -0.012686445 -0.010223687 2.276980945e-38
0.0023160598 -0.0094424542 -0.01363501 2.277124298e-38
0.0032299787 -0.0076431921 -0.013448557 2.277303664e-38
0.0041439012 -0.0058439225 -0.013262102 2.286415467e-38
0.0062441234 -0.0054623289 -0.0094750673 2.267976481e-38
0.00597174 -0.0022453973 -0.012889193 2.258756918e-38
0.0068856664 -0.00044612121 -0.012702739 2.240389679e-38
0.0069021611 0.0024011347 -0.015218154 2.231134383e-38
0.007813503 0.0041953241 -0.015032224 2.194364311e-38
0.0087248487 0.0059895199 -0.014846296 2.166706043e-38
0.01054135 0.0067509422 -0.011956923 2.157414733e-38
0.012665623 0.0071798833 -0.0081649804 2.157414733e-38
0.013582982 0.0089859189 -0.0079778247 2.166598283e-38
0.015413262 0.0097743571 -0.0050855395 2.184857342e-38
0.017248653 0.010572991 -0.0021923021 2.148014963e-38
0.018171158 0.012389161 -0.0020040963 2.120534099e-38
0.020321216 0.012868837 0.0017930958 1.94511199e-38
0.020016182 0.01602152 -0.0016276825 1.77941209e-38
0.020012932 0.018829877 -0.0041471347 1.760613251e-38
0.020932864 0.02064098 -0.0039594537 1.751537461e-38
-0.0045768395 -0.025750134 -0.0077703516 1.456589218e-38
-0.0045164065 -0.022827009 -0.01028081 1.714841938e-38
-0.0035990472 -0.021020973 -0.010093655 1.97320298e-38
-0.0026816907 -0.019214943 -0.0099064996 2.019158703e-38
-0.0029206548 -0.015946489 -0.013319001 2.065938109e-38
-0.0020067322 -0.014147221 -0.013132546 2.084270176e-38
-0.0010928127 -0.012347959 -0.012946092 2.111820405e-38
-0.00017889007 -0.01054869 -0.012759637 2.166777789e-38
0.00073503261 -0.0087494208 -0.012573183 2.221520074e-38
0.0016489516 -0.0069501577 -0.012386729 2.230703343e-38
0.00079753622 -0.0030182083 -0.017605916 2.239922626e-38
0.0025915722 -0.0022903809 -0.014717117 2.212300091e-38
0.0035029147 -0.00049619167 -0.01453119 2.193896698e-38
0.0044142632 0.0012980108 -0.01434526 2.157018726e-38
0.0044326079 0.004138275 -0.016864305 2.129324584e-38
0.0053413766 0.0059273969 -0.016678903 2.119890062e-38
0.0062501454 0.0077165198 -0.016493499 2.110491133e-38
0.0071589104 0.0095056351 -0.016308097 2.138830853e-38
0.0089709861 0.010268977 -0.013415618 2.156910966e-38
0.010788165 0.011042507 -0.010522187 2.184497488e-38
0.012913384 0.011487581 -0.0067248605 2.212084291e-38
0.015652779 0.011272532 -0.0011205049 2.14787147e-38
0.016575286 0.013088701 -0.00093229907 2.083656267e-38
0.0174978 0.014904886 -0.00074409181 1.936000047e-38
0.018420311 0.01672106 -0.00055588526 1.797886949e-38
0.018421512 0.019527467 -0.003078328 1.77908839e-38
0.019341446 0.021338571 -0.0028906469 1.769976727e-38
-0.0061682588 -0.025052546 -0.0067015444 1.456696697e-38
-0.0052483254 -0.023241442 -0.0065138638 1.723954162e-38
-0.0051860027 -0.02032534 -0.0090278462 1.991677839e-38
-0.0042686462 -0.01851931 -0.0088406913 1.973384168e-38
-0.0033512861 -0.016713275 -0.0086535346 1.955087554e-38
-0.003587736 -0.013454198 -0.012070734 1.944467813e-38
-0.0026738166 -0.011654935 -0.01188428 1.945653312e-38
-0.001759894 -0.0098556662 -0.011697825 2.056610927e-38
-0.00084597152 -0.0080563975 -0.011511371 2.166311297e-38
-0.00080767972 -0.0051876884 -0.014030145 2.175674072e-38
-0.00077456329 -0.0023290878 -0.016550085 2.194112778e-38
-0.00074660126 0.00051936647 -0.019071078 2.166633736e-38
0.0010429742 0.0012491569 -0.016179278 2.138975327e-38
0.0019517397 0.0030382727 -0.015993876 2.083371664e-38
0.0019719736 0.0058715134 -0.018516446 2.028341832e-38
0.0028781653 0.0076555628 -0.018331569 2.046780538e-38
0.0037843543 0.0094396044 -0.018146692 2.065147777e-38
0.0046905461 0.011223653 -0.017961815 2.111101398e-38
0.0055967378 0.013007702 -0.017776936 2.166274443e-38
0.0074043483 0.013773002 -0.014881459 2.203977219e-38
0.0092171105 0.014548439 -0.011984931 2.239347113e-38
0.012243783 0.013989243 -0.0054718968 2.138362819e-38
0.014070293 0.014791747 -0.0025725635 2.04638313e-38
0.014990223 0.016602844 -0.0023848834 1.936072214e-38
0.016824428 0.017420605 0.00051591964 1.825366272e-38
0.017746938 0.019236781 0.0007041262 1.806746799e-38
0.017750027 0.022036159 -0.0018218401 1.788415713e-38
-0.00578102 -0.026952371 0.0006755949 1.447620767e-38
-0.0068397447 -0.022543853 -0.0054450571 1.714807046e-38
-0.0059198076 -0.020732744 -0.0052573755 1.982637922e-38
-0.0058556134 -0.017823674 -0.0077748736 1.964164464e-38
-0.0049382532 -0.016017638 -0.0075877178 1.945291777e-38
-0.005168763 -0.012761164 -0.011008906 1.844018395e-38
-0.004254844 -0.010961901 -0.010822453 1.75193557e-38
-0.0033409211 -0.0091626327 -0.010635998 1.908562062e-38
-0.0032955853 -0.0062908009 -0.013157244 2.074404194e-38
-0.0023842431 -0.0044966117 -0.012971316 2.065184912e-38
-0.0032204404 -0.00057751406 -0.018203113 2.056969659e-38
-0.0023142486 0.0012065349 -0.018018236 1.97406646e-38
-0.0014080568 0.0029905841 -0.01783336 1.891199274e-38
-0.00050186506 0.0047746329 -0.017648481 1.982891417e-38
0.00040432671 0.0065586818 -0.017463604 2.074583e-38
0.0013105185 0.0083427317 -0.017278727 2.074546706e-38
0.0022167065 0.010126773 -0.01709385 2.083730536e-38
0.0031228983 0.011910822 -0.016908973 2.08355145e-38
0.0040290901 0.013694871 -0.016724095 2.083838436e-38
0.0058322367 0.014462126 -0.01382562 1.94561884e-38
0.0067410027 0.016251242 -0.013640217 1.816616144e-38
0.010656817 0.01468488 -0.0044060796 1.881077835e-38
0.011574177 0.016490916 -0.0042189239 1.945542609e-38
0.01249153 0.018296938 -0.0040317699 1.880863857e-38
0.015228556 0.018120145 0.0015877166 1.825330679e-38
0.016151067 0.019936321 0.0017759232 1.806926445e-38
-0.0073828427 -0.026250221 0.0017513894 1.447441681e-38
-0.007585065 -0.022952383 -0.0016692393 1.714878512e-38
-0.0066625518 -0.021136202 -0.001481032 1.982601769e-38
-0.0065912935 -0.018224051 -0.0040008873 1.954980775e-38
-0.0065252087 -0.015322006 -0.006521909 1.936108367e-38
-0.0056078522 -0.013515977 -0.0063347537 1.741277714e-38
-0.0058358712 -0.010268868 -0.0097606257 1.558757048e-38
-0.0049219485 -0.0084695993 -0.0095741712 1.77062679e-38
-0.0048721484 -0.0055997241 -0.012098414 1.982028077e-38
-0.0039608059 -0.0038055347 -0.011912486 1.945509398e-38
-0.0039187735 -0.00095084216 -0.014438414 1.918063707e-38
-0.0038818957 0.0018937038 -0.016965395 1.77765332e-38
-0.0029757037 0.0036777528 -0.016780518 1.641660948e-38
-0.0020695119 0.0054618018 -0.016595639 1.882050617e-38
-0.0011633202 0.0072458507 -0.016410762 2.120644101e-38
-0.00025712838 0.0090299007 -0.016225886 2.111317619e-38
0.00064905966 0.010813942 -0.016041009 2.102026029e-38
0.0024426007 0.011573001 -0.013140595 2.046852565e-38
0.0033513694 0.013362125 -0.012955192 2.000682022e-38
0.0042601381 0.015151247 -0.012769789 1.695327316e-38
0.0051689032 0.016940363 -0.012584385 1.392053258e-38
0.0090698609 0.015380512 -0.0033402708 1.62146109e-38
0.0099872211 0.017186549 -0.003153115 1.854136611e-38
0.010904574 0.018992571 -0.0029659607 1.834838489e-38
-0.0089846663 -0.025548071 0.0028271838 1.474849117e-38
-0.0091809593 -0.022252832 -0.00059742643 1.723954302e-38
-0.0091026472 -0.019337565 -0.0031197616 1.982601629e-38
-0.0081827138 -0.017526463 -0.0029320805 1.963984818e-38
-0.0081121754 -0.014626368 -0.0054560918 1.936108507e-38
-0.0071948194 -0.01282034 -0.005268937 1.778406939e-38
-0.0074168751 -0.0095758447 -0.0086988136 1.613534365e-38
-0.0065029524 -0.0077765761 -0.0085123591 1.742678873e-38
-0.0055890298 -0.0059773065 -0.0083259046 1.871894706e-38
-0.0046751103 -0.0041780439 -0.0081394501 1.862568084e-38
-0.0046260306 -0.0013202752 -0.010667729 1.852662165e-38
-0.0045821164 0.0015274056 -0.013197172 1.769108483e-38
-0.0036733474 0.0033165279 -0.013011768 1.695215632e-38
-0.0027645822 0.005105644 -0.012826366 1.806177591e-38
-0.0018558134 0.0068947664 -0.012640963 1.926354489e-38
-0.0009470447 0.0086838882 -0.01245556 1.936364665e-38
-3.8275961e-05 0.010473011 -0.012270157 1.945654713e-38
0.00087048905 0.012262126 -0.012084755 1.908632548e-38
0.0008937954 0.015069209 -0.014618413 1.86242431e-38
0.0017999872 0.016853258 -0.014433535 1.695610378e-38
0.0027061789 0.018637307 -0.014248658 1.530377531e-38
0.0074828933 0.016076149 -0.0022744539 1.732988894e-38
0.008400254 0.017882187 -0.0020872981 1.937218056e-38
0.0093176067 0.01968821 -0.0019001437 1.890119293e-38
-0.01058649 -0.024845921 0.0039029783 1.502722205e-38
-0.010776831 -0.021553291 0.00047437067 1.742249935e-38
-0.010694078 -0.018639971 -0.0020509465 1.991785318e-38
-0.0097741447 -0.016828869 -0.0018632656 1.963841185e-38
-0.0088542113 -0.015017767 -0.0016755848 1.94532793e-38
-0.008781787 -0.012124702 -0.0042031202 1.806388347e-38
-0.0078644305 -0.010318673 -0.0040159649 1.677818512e-38
-0.0080839796 -0.0070835426 -0.0074505312 1.723915626e-38
-0.0071700569 -0.0052842726 -0.0072640767 1.770120641e-38
-0.006256137 -0.00348501 -0.0070776232 1.77962747e-38
-0.0062025823 -0.00062920339 -0.0096089076 1.797310315e-38
-0.0052912328 0.0011649989 -0.0094229775 1.769757144e-38
-0.0043798909 0.0029591881 -0.0092370501 1.75132096e-38
-0.0034685417 0.0047533903 -0.0090511199 1.74210406e-38
-0.002557196 0.0065475861 -0.0088651916 1.742284968e-38
-0.00077260775 0.0073105921 -0.0059588971 1.770626369e-38
-0.0007345078 0.010135971 -0.008493335 1.797960938e-38
0.00017683487 0.011930161 -0.0083074067 1.761010799e-38
-0.00067385146 0.015756378 -0.013565571 1.733063863e-38
0.0011159275 0.016529493 -0.010658117 1.705116927e-38
0.0011385321 0.019324476 -0.013195816 1.677818232e-38
0.003822214 0.019106938 -0.0075636921 1.853705712e-38
0.0047335597 0.020901132 -0.0073777633 2.028122109e-38
-0.012188314 -0.02414377 0.0049787723 1.530595433e-38
-0.012372702 -0.02085375 0.0015461678 1.760904441e-38
-0.012285497 -0.017942382 -0.00098213961 1.991785458e-38
-0.011365565 -0.01613128 -0.00079445867 1.963841045e-38
-0.01044563 -0.014320178 -0.00060677784 1.936180394e-38
-0.010368753 -0.011429065 -0.0031373031 1.622036043e-38
-0.0094513968 -0.0096230358 -0.0029501482 1.310296601e-38
-0.0096649947 -0.0063905139 -0.0063887117 1.365504537e-38
-0.008751072 -0.0045912443 -0.0062022572 1.411566058e-38
-0.007837153 -0.0027919817 -0.0060158032 1.411458719e-38
-0.0069232304 -0.00099271256 -0.0058293487 1.411386692e-38
-0.0060093142 0.00080654363 -0.0056428956 1.393091199e-38
-0.0039472557 0.0012131475 -0.0018272171 1.374795006e-38
-0.0030298992 0.0030191769 -0.001640062 1.393017771e-38
-0.0021125395 0.004825213 -0.0014529063 1.411278792e-38
-0.0011951831 0.0066312421 -0.0012657512 1.419854038e-38
-0.00027782668 0.0084372712 -0.0010785961 1.428427182e-38
0.00063953327 0.010243307 -0.00089144032 1.538952076e-38
0.0015568865 0.012049329 -0.00070428592 1.65866108e-38
0.0013020609 0.015200684 -0.0041512605 1.686821714e-38
0.00045259343 0.019007728 -0.0094168829 1.724240027e-38
0.0043089585 0.017467426 -0.00014282018 1.862820878e-38
0.0052263187 0.019273462 4.4335611e-05 2.00986403e-38
-0.013968587 -0.020154204 0.0026179727 1.770410429e-38
-0.013876917 -0.017244793 8.6667365e-05 1.991533925e-38
-0.012956983 -0.015433692 0.00027434831 1.963876498e-38
-0.012873066 -0.012539461 -0.0022586491 1.935925077e-38
-0.011955709 -0.010733432 -0.0020714942 1.437711485e-38
-0.011038353 -0.008927403 -0.0018843391 9.501592519e-39
-0.010120993 -0.0071213664 -0.0016971834 1.004436446e-38
-0.010332099 -0.0038982104 -0.0051404294 1.059680536e-38
-0.0082862834 -0.0035093145 -0.0013228739 1.041456229e-38
-0.0073689208 -0.0017032719 -0.0011357175 1.023125564e-38
-0.0064515681 0.00010275072 -0.00094856299 1.013978588e-38
-0.0046775788 0.00086623972 0.0019634762 1.004580359e-38
-0.0028984551 0.0016399219 0.0048764525 1.041099879e-38
-0.001975948 0.0034560913 0.0050646588 1.080453244e-38
-0.0010534341 0.0052722739 0.0052528661 1.06922548e-38
-0.00013092696 0.0070884442 0.0054410715 1.061549167e-38
0.00079158694 0.0089046266 0.0056292787 1.318438005e-38
0.00084202806 0.011732869 0.0030895625 1.585586869e-38
0.00088729069 0.014550998 0.00054867892 1.677710332e-38
0.0018046472 0.016357029 0.00073583378 1.770229662e-38
0.0044816318 0.016169336 0.0063821059 1.881152104e-38
0.0054041385 0.017985506 0.0065703117 1.991532945e-38
-0.015468337 -0.016547203 0.0011554743 1.972915293e-38
-0.014548402 -0.014736103 0.0013431553 1.945508978e-38
-0.014460033 -0.011843824 -0.0011928325 1.926486351e-38
-0.013542676 -0.010037795 -0.0010056775 1.557412642e-38
-0.01262532 -0.0082317656 -0.00081852241 1.194808868e-38
-0.01170796 -0.006425729 -0.00063136662 1.243958291e-38
-0.010790607 -0.0046197064 -0.00044421223 1.28879802e-38
-0.0098732505 -0.0028136771 -0.00025705714 1.307558043e-38
-0.0089558875 -0.0010076344 -6.9900649e-05 1.326321289e-38
-0.0071889316 -0.000247274 0.0028446023 1.32653807e-38
-0.005416852 0.00052328501 0.0057600504 1.335938681e-38
-0.0044943383 0.0023394676 0.0059482576 1.373392306e-38
-0.0035718312 0.0041556377 0.0061364635 1.410843409e-38
-0.0026493173 0.0059718201 0.0063246707 1.401731185e-38
-0.0017268101 0.0077879895 0.0065128766 1.401804613e-38
-0.00080429623 0.0096041728 0.0067010839 1.539810652e-38
0.00011821417 0.011420349 0.0068892906 1.67781669e-38
0.0010407246 0.013236525 0.007077497 1.733134909e-38
0.001963235 0.015052701 0.0072657038 1.79788821e-38
0.0040529328 0.015542288 0.011097413 1.899662696e-38
0.0049788808 0.017365228 0.011286322 2.009935917e-38
0.0068307756 0.021011114 0.011664137 1.880575049e-38
0.0077567198 0.022834051 0.011853044 1.871175419e-38
-0.017979693 -0.017660724 0.0020365999 1.770123864e-38
-0.017059756 -0.015849615 0.002224281 1.96391153e-38
-0.016139822 -0.014038513 0.002411962 1.936325428e-38
-0.016047001 -0.011148186 -0.00012701564 1.917557558e-38
-0.015129644 -0.0093421573 6.013969e-05 1.686348356e-38
-0.014212288 -0.0075361282 0.00024729455 1.456366271e-38
-0.013294928 -0.0057300916 0.00043445034 1.492707265e-38
-0.012377575 -0.003924069 0.00062160473 1.529835228e-38
-0.011460219 -0.0021180396 0.00080875983 1.576182755e-38
-0.010542855 -0.00031199702 0.00099591631 1.631428526e-38
-0.0087803518 0.00045031501 0.0039134091 1.649975973e-38
-0.0070127235 0.0012228256 0.0068318476 1.677671376e-38
-0.0060902103 0.0030390082 0.0070200549 1.714550328e-38
-0.0040305285 0.0034838561 0.010850863 1.751535359e-38
-0.0031045806 0.005306799 0.01103977 1.742638655e-38
-0.0021786331 0.0071297418 0.011228678 1.74235209e-38
-0.0012526894 0.0089526782 0.011417584 1.760468637e-38
-0.00032674149 0.010775621 0.011606492 1.77908853e-38
-0.00055514742 0.013936065 0.0081492942 1.797744437e-38
0.0015251534 0.014421507 0.011984308 1.82554774e-38
0.0024510976 0.016244441 0.012173215 1.927357539e-38
0.0033770455 0.018067386 0.012362123 2.02833945e-38
0.0043029925 0.019890327 0.012551031 1.963730622e-38
0.0052289404 0.021713272 0.01273994 1.899050329e-38
0.0061548846 0.023536209 0.012928845 1.88035953e-38
-0.020386031 -0.015870655 0.0003773272 1.7977471e-38
-0.018651176 -0.015152027 0.0032930882 1.982458416e-38
-0.017731242 -0.013340925 0.0034807692 1.97320326e-38
-0.017633956 -0.010452554 0.00093879364 1.963766075e-38
-0.016716599 -0.0086465245 0.001125949 1.779626209e-38
-0.015799243 -0.0068404954 0.0013131038 1.604707867e-38
-0.014881883 -0.0050344588 0.0015002596 1.632293968e-38
-0.01396453 -0.003228436 0.001687414 1.659916504e-38
-0.013047174 -0.0014224071 0.0018745689 1.705978025e-38
-0.011291705 -0.00066319824 0.0047945357 1.75207556e-38
-0.010371772 0.0011479042 0.0049822163 1.613282552e-38
-0.0086086057 0.0019223711 0.0079036523 1.485251516e-38
-0.007686093 0.003738554 0.0080918595 1.586486362e-38
-0.00563234 0.0041860007 0.011926649 1.696904197e-38
-0.0047063921 0.0060089435 0.012115557 1.724311493e-38
-0.0037804446 0.0078318864 0.012304464 1.751717948e-38
-0.0028545009 0.0096548228 0.012493372 1.77022784e-38
-0.001928553 0.011477766 0.01268228 1.797959677e-38
-0.0010026055 0.013300708 0.012871187 1.816400484e-38
-7.6658092e-05 0.015123651 0.013060095 1.834840171e-38
0.00084928609 0.016946588 0.013249002 1.936470042e-38
0.0026442674 0.017783582 0.01617703 2.046778856e-38
0.0035727886 0.019611593 0.016366463 1.963623423e-38
0.0045013162 0.021439616 0.016555898 1.890010833e-38
0.0045530731 0.024238352 0.014004633 1.871643033e-38
-0.021162532 -0.016265547 0.0041742134 1.825405228e-38
-0.020242594 -0.014454437 0.0043618949 2.000646289e-38
-0.01932266 -0.012643335 0.004549576 2.000897682e-38
-0.019220924 -0.0097569162 0.0020046104 2.009648651e-38
-0.018303568 -0.007950888 0.0021917657 1.880395403e-38
-0.017386211 -0.006144858 0.0023789206 1.760865204e-38
-0.016468851 -0.0043388214 0.0025660763 1.770084207e-38
-0.015551497 -0.002532799 0.0027532307 1.788451867e-38
-0.014634141 -0.00072676991 0.0029403856 1.825437738e-38
-0.012883124 3.439076e-05 0.005863342 1.871605338e-38
-0.011963191 0.0018454932 0.006051023 1.576582545e-38
-0.010204477 0.0026219122 0.0089754499 1.292142359e-38
-0.009281965 0.0044380948 0.0091636572 1.465660103e-38
-0.0072341636 0.0048881499 0.013002444 1.650697081e-38
-0.0063082157 0.0067110928 0.013191352 1.705980547e-38
-0.0053822687 0.0085340356 0.013380259 1.761117578e-38
-0.0044563245 0.010356971 0.013569167 1.788739833e-38
-0.0026761149 0.011175632 0.016498089 1.825475153e-38
-0.0026044291 0.014002857 0.013946982 1.83473157e-38
-0.00081906933 0.014831658 0.016876955 1.853278736e-38
0.00010945508 0.016659673 0.017066389 1.954800568e-38
0.00103798 0.018487692 0.017255822 2.065109802e-38
0.0019665011 0.020315699 0.017445255 1.972699353e-38
0.0028950288 0.022143722 0.01763469 1.880827143e-38
0.0029512495 0.024940502 0.015080426 1.871642752e-38
0.0038771965 0.026763443 0.015269335 1.862387737e-38
-0.02194798 -0.016656486 0.0079769809 1.816078185e-38
-0.021834014 -0.013756848 0.0054307017 1.982099964e-38
-0.020914081 -0.011945746 0.0056183827 1.982100384e-38
-0.020807879 -0.0090612834 0.0030704192 1.982098843e-38
-0.019890523 -0.0072552552 0.0032575745 1.862029565e-38
-0.018973166 -0.0054492252 0.0034447294 1.751718789e-38
-0.018055806 -0.0036431889 0.0036318852 1.760901778e-38
-0.017138453 -0.0018371663 0.0038190396 1.770086169e-38
-0.016221097 -3.113714e-05 0.0040061949 1.807036587e-38
-0.014474544 0.00073197979 0.0069321492 1.835050646e-38
-0.01355461 0.0025430822 0.0071198298 1.677707669e-38
-0.011800362 0.0033214579 0.010047254 1.512293074e-38
-0.010877848 0.005137641 0.010235461 1.613488543e-38
-0.0088359872 0.0055902996 0.014078237 1.723911983e-38
-0.0079100393 0.007413242 0.014267145 1.742679293e-38
-0.0069840914 0.0092361858 0.014456052 1.770230362e-38
-0.0060581481 0.011059121 0.01464496 1.797889051e-38
-0.0051322002 0.012882064 0.014833868 1.825475854e-38
-0.0042062528 0.014705007 0.015022775 1.843986866e-38
-0.0032803053 0.016527951 0.015211683 1.871753035e-38
-0.0023543611 0.018350884 0.01540059 1.954800007e-38
-0.0014284132 0.020173829 0.015589498 2.037558873e-38
-0.00050246622 0.02199677 0.015778406 1.9727711e-38
0.00042348169 0.023819715 0.015967313 1.899229975e-38
0.0013494259 0.025642652 0.016156221 1.880826162e-38
0.0022753729 0.027465593 0.016345128 1.87149954e-38
-0.025146911 -0.013783753 0.003574762 1.806787296e-38
-0.024229551 -0.011977717 0.0037619178 1.963912231e-38
-0.023312194 -0.010171687 0.0039490727 1.963840484e-38
-0.022394834 -0.0083656516 0.0041362285 1.963731463e-38
-0.021477478 -0.0065596225 0.0043233838 1.852845875e-38
-0.020560121 -0.0047535934 0.0045105387 1.742571253e-38
-0.019642761 -0.0029475566 0.0046976944 1.751718649e-38
-0.018725408 -0.001141534 0.0048848493 1.760902619e-38
-0.017808052 0.00066449516 0.0050720042 1.779485378e-38
-0.016065974 0.0014295739 0.0080009652 1.807465245e-38
-0.015146041 0.0032406764 0.0081886454 1.769653728e-38
-0.013396244 0.0040210038 0.011119059 1.742424397e-38
-0.011363757 0.0044695064 0.014965124 1.770296503e-38
-0.01043781 0.0062924493 0.015154032 1.797777928e-38
-0.009511862 0.0081153922 0.01534294 1.788561168e-38
-0.008585914 0.009938335 0.015531847 1.788597181e-38
-0.0076599708 0.011761271 0.015720755 1.807036307e-38
-0.0058886777 0.012583838 0.018655665 1.825511306e-38
-0.0049601537 0.014411855 0.0188451 1.853241602e-38
-0.0040316326 0.016239863 0.019034531 1.890119994e-38
-0.0039561838 0.019053034 0.016476385 1.95483588e-38
-0.0030302359 0.020875979 0.016665293 2.019012407e-38
-0.0021042889 0.02269892 0.016854201 1.972842846e-38
-0.001178341 0.024521865 0.017043108 1.926780904e-38
-0.0002523968 0.026344802 0.017232016 1.899193682e-38
-0.025936801 -0.014172775 0.0073806425 1.834481859e-38
-0.025016865 -0.012361665 0.0075683235 1.991642246e-38
-0.024096932 -0.010550563 0.0077560046 1.973131373e-38
-0.0239818 -0.0076700142 0.0052020457 1.963731323e-38
-0.023064444 -0.005863985 0.0053892005 1.852845875e-38
-0.022147087 -0.0040579559 0.0055763554 1.751790956e-38
-0.021229729 -0.0022519191 0.0057635112 1.760902759e-38
-0.020312374 -0.00044589653 0.005950666 1.760938492e-38
-0.01939502 0.0013601326 0.0061378209 1.79788779e-38
-0.017657394 0.0021271629 0.0090697715 1.834981281e-38
-0.016737461 0.0039382656 0.0092574516 1.807323573e-38
-0.014992116 0.0047205444 0.012190857 1.779665445e-38
-0.012965581 0.0051716561 0.016040919 1.788705642e-38
-0.012039633 0.0069945985 0.016229827 1.797924504e-38
-0.011113686 0.0088175414 0.016418735 1.797852337e-38
-0.010187739 0.010640484 0.016607642 1.788632914e-38
-0.0092617944 0.012463421 0.01679655 1.807107773e-38
-0.0083358465 0.014286363 0.016985457 1.825582632e-38
-0.0065664169 0.015115951 0.019923877 1.862460604e-38
-0.0056378958 0.016943961 0.020113308 1.899303263e-38
-0.0055580074 0.019755185 0.01755218 1.954477288e-38
-0.0046320595 0.021578126 0.017741088 2.009685365e-38
-0.0037061125 0.02340107 0.017929995 1.963659296e-38
-0.0019237972 0.024256025 0.020871043 1.926816918e-38
-0.0018542204 0.027046949 0.018307809 1.908341778e-38
-0.00092827342 0.028869893 0.018496718 1.889867199e-38
-0.026735604 -0.014557858 0.01119238 1.87135913e-38
-0.026608285 -0.011664077 0.0086371312 2.028232811e-38
-0.02568835 -0.0098529747 0.0088248122 1.991642106e-38
-0.024768416 -0.0080418708 0.0090124933 1.963731463e-38
-0.024651412 -0.0051683476 0.0064550173 1.862029565e-38
-0.023734055 -0.0033623183 0.0066421721 1.770122182e-38
-0.022816695 -0.0015562817 0.0068293279 1.770086309e-38
-0.021899343 0.0002497409 0.0070164828 1.770157915e-38
-0.020168746 0.0010136489 0.0099508977 1.816326776e-38
-0.019248813 0.0028247519 0.010138579 1.862316971e-38
-0.017510498 0.0036039089 0.013074447 1.834874643e-38
-0.015493351 0.0040508625 0.016927805 1.81636377e-38
-0.014567404 0.0058738049 0.017116712 1.807108194e-38
-0.013641455 0.0076967487 0.01730562 1.80707218e-38
-0.012715508 0.0095196906 0.017494528 1.797888491e-38
-0.011789561 0.011342634 0.017683435 1.797924364e-38
-0.010863617 0.01316557 0.017872343 1.8071798e-38
-0.0099376692 0.014988513 0.01806125 1.825583053e-38
-0.0090117222 0.016811457 0.018250158 1.871716461e-38
-0.0080857743 0.018634398 0.018439066 1.917742669e-38
-0.0071598301 0.020457335 0.018627973 1.963804751e-38
-0.0062338822 0.022280276 0.018816881 2.009649772e-38
-0.0053079352 0.024103221 0.019005788 1.963659296e-38
-0.0035300846 0.02496013 0.021949835 1.926745311e-38
-0.0026015597 0.026788149 0.022139268 1.908341918e-38
-0.030176509 -0.017490666 0.011887773 1.778909304e-38
-0.029254004 -0.015674496 0.012075978 1.705443009e-38
-0.029119641 -0.012777597 0.0095182573 1.843736454e-38
-0.027408976 -0.01204213 0.012452393 1.99135512e-38
-0.02727977 -0.0091553852 0.0098936195 1.972952428e-38
-0.026359838 -0.0073442818 0.010081301 1.963767477e-38
-0.02623838 -0.0044727102 0.007520834 1.88975972e-38
-0.025321024 -0.0026666808 0.0077079888 1.825438859e-38
-0.024403663 -0.00086064427 0.0078951446 1.807000014e-38
-0.023486311 0.00094537833 0.0080822995 1.797780451e-38
-0.021760166 0.0017112379 0.011019705 1.80707162e-38
-0.020840233 0.0035223409 0.011207386 1.825511306e-38
-0.019106383 0.0043034554 0.014146253 1.825512147e-38
-0.017095163 0.0047530071 0.01800359 1.816327897e-38
-0.016169216 0.0065759495 0.0181925 1.797924364e-38
-0.015243269 0.0083988933 0.018381407 1.788848574e-38
-0.014317322 0.010221835 0.018570315 1.770517488e-38
-0.013391375 0.012044779 0.018759223 1.761369812e-38
-0.01246543 0.013867714 0.01894813 1.761334079e-38
-0.011539483 0.015690658 0.019137038 1.770518049e-38
-0.010613536 0.017513599 0.019325946 1.798320371e-38
-0.0096875876 0.019336544 0.019514853 1.835306383e-38
-0.0087616434 0.021159478 0.019703761 1.91806679e-38
-0.0078356955 0.022982422 0.019892668 2.010008644e-38
-0.0069097485 0.024805363 0.020081576 1.963766916e-38
-0.0051363609 0.025664233 0.02302862 1.917525888e-38
-0.030711049 -0.012080013 0.010587056 1.825333482e-38
-0.029791113 -0.010268903 0.010774737 1.963768458e-38
-0.028871179 -0.0084578013 0.010962418 1.963947964e-38
-0.027951244 -0.0066466979 0.011150099 1.963623984e-38
-0.027825335 -0.0037770772 0.0085866433 1.917489875e-38
-0.026907979 -0.0019710481 0.0087737981 1.880468691e-38
-0.025990618 -0.0001650115 0.0089609539 1.852918042e-38
-0.024271509 0.00059771939 0.011900823 1.825367253e-38
-0.023351574 0.0024088218 0.012088504 1.807036027e-38
-0.022431642 0.004219925 0.012276185 1.797996671e-38
